ply
format ascii 1.0
comment web version (ASCII)
element vertex 1256
property float x
property float y
property float z
property uchar red
property uchar green
property uchar blue
end_header
-2.77208 -0.261741 -0.153124 59 51 47
-2.7734 -0.324984 -0.208639 72 71 72
-2.78885 -0.348082 -0.33171 137 119 105
-2.79032 -0.327029 -0.321542 142 121 102
-3.05487 -0.347106 -0.502627 27 27 27
-1.91284 -0.0681887 1.22678 149 120 124
-3.02239 -0.404557 -0.746136 37 61 15
0.96123 0.728014 1.75697 30 44 15
-3.02239 -0.404557 -0.746136 37 61 15
-3.02513 -0.427826 -0.826384 15 16 21
1.10038 0.491348 1.30843 147 129 119
0.00947163 1.0191 4.57612 42 63 34
1.23179 -1.10333 0.286377 194 178 154
-3.09726 -0.305997 -0.565046 13 19 18
-3.09489 -0.305032 -0.597597 17 19 16
-2.82503 -0.365086 0.0656091 164 142 129
-3.05623 -0.355273 -0.769619 49 83 37
2.76168 -1.21995 -1.13474 19 23 22
-2.83493 -0.405793 0.188974 78 63 62
-3.14646 -0.0472114 0.00925172 34 49 27
-3.14535 -0.0469827 0.00969167 34 49 27
1.19972 -0.576652 0.206316 18 14 11
-2.8097 -0.155717 -0.119328 138 119 105
-3.11144 -0.266099 -0.607431 19 20 17
-3.05811 -0.354168 -0.797328 15 15 17
1.11774 0.446137 1.32347 92 87 82
-3.05006 -0.356362 -0.884355 14 19 15
0.95188 0.0137091 1.4503 167 136 115
-3.04163 -0.356533 -0.898492 13 19 16
0.808578 0.4871 1.27075 114 111 101
2.62953 -1.06351 -1.54791 13 20 18
-2.80219 -0.115087 -0.191249 114 102 82
-2.91213 -0.331755 1.1371 99 82 85
-3.06722 -0.3158 -0.809175 12 11 16
-3.06848 -0.320755 -0.823236 11 17 14
-3.07878 -0.286241 -0.846487 10 16 14
-3.06893 -0.32467 -0.86817 15 17 16
-3.27409 0.104761 0.199323 15 21 20
-2.79815 -0.0841466 -0.289263 121 109 95
-3.10533 -0.142329 -0.514985 13 11 16
1.11736 0.345709 1.3075 86 69 61
-3.11866 -0.178096 -0.540455 19 22 20
0.391522 0.0857169 1.37343 121 79 81
-3.12089 -0.13743 -0.546983 21 34 27
-3.1 -0.0117146 -0.206716 12 12 14
1.16645 0.161189 0.736895 63 53 37
-2.9966 -0.259163 -1.01433 13 11 14
-0.670429 -0.651042 -0.51363 162 164 161
-3.20845 0.0902318 -0.190436 10 11 13
-3.13538 -0.0762578 -0.602309 11 11 13
-3.12637 -0.133119 -0.694041 8 10 9
0.705525 -0.0101043 1.43503 82 44 37
-2.78456 -0.268389 -0.379467 111 90 92
-3.2678 0.110562 -0.145184 10 12 11
-3.20606 0.0915485 -0.20497 15 17 15
-2.85251 -0.129421 0.386679 91 82 85
-2.86519 -0.85228 0.601804 194 174 162
1.66933 -1.4252 1.58071 253 255 252
-2.90177 -0.642795 1.02529 139 116 110
-3.10454 -0.109714 -0.765997 9 15 13
-2.92618 -0.55531 1.28212 130 125 129
1.82161 -0.889423 2.03676 253 255 254
-3.37661 0.279013 0.0696414 87 52 50
-2.89113 -0.66802 0.9121 154 138 121
-3.23788 0.0860399 -0.395526 31 31 33
-2.78456 -0.268389 -0.379467 111 90 92
0.828773 0.852557 2.71281 28 45 28
-3.10673 -0.122213 -0.910585 15 17 16
-3.10725 -0.111917 -0.93751 10 16 17
-2.79072 -1.18528 0.141226 107 111 122
-2.86314 -0.881289 1.06961 114 127 137
-2.89067 0.207488 0.839775 131 102 107
0.849975 0.388948 1.31401 184 157 140
-2.88961 -0.855358 0.889613 171 154 144
-2.86249 -0.751899 0.53453 207 183 168
1.26655 -1.31832 0.145862 55 47 35
-2.83883 -0.909188 0.292408 159 142 126
1.03598 -0.105081 1.49667 49 30 30
-2.90845 -0.530455 1.10404 125 99 106
-2.87074 -0.610385 0.601096 161 138 140
1.23444 -0.534781 0.14393 121 104 84
-2.92188 -0.49508 1.28693 254 255 253
2.81831 -2.84133 -1.18854 225 244 252
-2.89403 -0.601585 0.917847 115 100 100
-0.250345 -1.7837 -3.63348 63 79 55
-2.86522 -0.547108 0.552139 146 129 117
1.24024 -0.345775 -0.0249326 154 130 118
-3.03271 -0.384712 -0.888338 15 33 31
3.0418 -2.71539 -1.0648 228 246 254
-2.79877 -0.712917 -0.200232 168 148 136
-1.44765 -0.576543 -0.472215 90 58 56
-3.35056 0.096219 -0.455037 76 71 75
-2.88519 -1.65882 0.676662 131 131 131
-2.85742 -1.59046 0.625018 171 173 164
-2.85742 -1.59046 0.625018 171 173 164
-2.89263 -1.42891 0.930749 122 121 119
-2.87049 -1.45994 0.778548 148 137 127
-2.84957 -1.51598 0.539724 163 152 141
-2.28039 -0.348942 1.29452 140 101 93
-2.87107 -1.40005 0.756864 144 134 122
-2.88892 -1.28658 0.998035 137 120 108
-2.89585 -1.27393 0.61517 107 111 111
-2.841 -1.31925 0.395178 160 130 116
-2.90634 -1.25074 0.357944 162 158 148
-2.88337 -0.46449 0.763291 99 91 89
-2.89625 -1.29387 0.224 156 155 145
-2.88757 -1.30494 0.203221 160 160 150
1.42392 -0.115153 -0.593413 23 25 15
-2.88677 -1.32965 0.115834 167 170 163
-2.84762 -1.33994 0.0496352 40 35 35
0.964321 -1.16414 -0.0076154 166 154 140
-2.83846 -1.35833 -0.0187673 56 51 49
-2.88151 0.265703 0.753477 156 138 124
-1.8892 -0.827389 1.48152 93 77 77
-2.82755 -1.399 -0.142018 55 52 53
-2.82658 -1.40455 -0.158965 64 62 59
1.11714 0.408342 1.30307 134 126 105
-2.82626 -1.40482 -0.158822 64 62 59
0.161132 0.0866688 1.3522 181 167 164
-2.89571 -1.10087 1.03553 175 166 150
-2.94288 -1.108 0.797224 167 169 155
-2.86673 -1.24399 0.339836 56 46 37
-2.81292 -1.26886 0.0637875 126 123 118
-2.81252 -1.27199 0.0511702 128 122 113
-2.91693 -1.06845 0.873845 58 42 39
1.17091 -0.100338 -0.743757 138 117 100
-2.84469 -1.12712 0.393987 134 118 103
-2.84583 -1.12656 0.393383 134 118 103
-2.82707 -1.20265 0.19992 153 141 129
0.0284356 -0.838411 -0.202128 208 188 178
-2.82724 -1.20255 0.199867 153 141 129
0.569528 -0.0556698 1.43794 182 166 142
-2.69974 -1.2358 0.14305 129 137 150
1.13178 0.124559 1.19548 85 60 55
-2.79225 -1.21295 0.0312944 123 133 138
0.956102 -0.00684827 1.45603 85 44 40
-2.7956 -1.25773 -0.157081 182 169 153
-2.8667 -1.04305 0.665236 124 108 98
-2.80893 -1.03406 0.599068 134 143 163
-2.86448 0.31556 0.445751 31 25 25
-2.01536 -0.387742 1.3261 129 77 79
-2.78626 -1.18681 -0.275174 104 86 87
-2.78611 -1.18693 -0.275104 104 86 87
-2.90492 -0.841145 1.10561 173 161 147
-2.88769 -0.911939 0.885513 189 172 161
-2.87898 -0.917285 0.79746 196 182 170
1.07545 0.169195 1.40763 125 104 80
-2.83017 -1.03442 0.230672 189 172 165
-2.82524 -1.02092 0.135243 116 117 112
-2.82291 -0.555278 0.0668448 97 86 85
-2.77894 -1.11489 0.00154608 118 124 132
1.49545 0.264138 0.66001 35 36 28
-2.7947 -1.10564 -0.181883 174 159 146
1.59349 0.027553 -0.119398 55 73 47
-2.78654 -1.11784 -0.27176 175 159 144
-2.78193 -1.16828 -0.330691 87 65 67
0.566909 -0.213599 -0.807677 58 69 54
-2.9234 -0.766411 1.31601 142 134 124
-2.88583 -0.86162 0.868317 176 162 147
-2.88355 -0.808902 0.905254 198 193 186
0.20124 -0.399194 1.5201 147 107 116
-2.86194 -0.879613 0.582816 197 187 171
-2.82812 -0.930111 0.527972 173 179 178
-2.83714 -0.944496 0.266789 178 153 139
-2.825 -0.96088 0.118312 145 120 115
1.25672 -0.453689 -0.201343 208 181 157
-2.825 -0.96088 0.118312 145 120 115
-2.82532 -0.999681 0.111675 104 92 94
-2.82409 -1.00016 0.112115 104 92 94
1.23233 -0.948473 0.240595 234 213 204
-2.8667 -0.803272 0.622244 131 102 99
-2.86676 -0.803348 0.621813 131 102 99
-2.83443 -0.454708 0.17836 95 76 74
-1.9594 0.597778 1.69995 8 11 4
-2.84177 -0.911604 0.319767 153 114 108
-2.84026 -0.899783 0.299862 103 74 78
-2.83928 -0.876931 0.277874 129 97 102
-2.82476 -0.950944 0.118842 138 117 106
-2.81132 -0.95357 -0.0575194 104 106 105
-2.81132 -0.95357 -0.0575194 104 106 105
-2.79673 -1.01911 -0.176003 190 183 175
1.48154 0.314355 0.741675 25 41 34
-2.787 -0.994848 -0.293896 113 86 90
-1.53255 -1.50069 -0.341337 112 110 111
0.811709 -0.0173193 1.44677 95 67 60
-2.92028 -0.577946 1.2529 153 141 135
-1.66162 0.185912 1.15921 118 90 91
-2.87735 -0.695523 0.721048 193 173 162
-2.86944 -0.741461 0.636798 194 171 156
-2.85773 -0.743436 0.479718 86 73 73
-2.85384 -0.771154 0.431854 110 83 91
-2.8525 -0.760706 0.405447 120 97 100
-2.85244 -0.760699 0.405506 120 97 100
-2.90613 0.290619 1.01111 104 68 72
-2.84911 -0.798915 0.382804 113 96 102
-2.83957 -0.801995 0.333282 191 172 158
-2.82282 -0.851905 0.123026 181 162 150
-2.81732 -0.895117 0.0377943 118 89 90
-2.8134 -0.896469 0.0393743 118 89 90
-2.79256 -0.920893 -0.221303 171 156 147
-2.78535 -0.985241 -0.319796 170 156 155
-2.91698 -0.510258 1.19652 119 106 105
-2.86131 -0.254613 0.508153 84 77 75
-2.91682 -0.510297 1.19662 119 106 105
-2.89229 -0.605941 0.929124 169 150 133
-2.90565 -0.774773 1.10634 183 164 151
-2.86163 -0.710427 0.51456 189 163 155
-2.83695 -0.75513 0.236734 179 157 145
-2.83072 -0.75083 0.161646 177 155 147
-2.80173 -0.863267 -0.143154 92 70 73
0.00877758 -0.415722 -0.337692 184 155 146
-2.7931 -0.86154 -0.247165 95 80 90
-2.78208 -0.880537 -0.357631 76 70 73
-2.88371 -0.578029 0.786114 183 159 147
-2.88353 -0.570858 0.785888 188 164 154
-2.87044 -0.600892 0.639082 168 147 131
-2.86358 -0.598866 0.543071 93 72 78
-2.85903 -0.599847 0.546162 93 72 78
-2.79876 -0.714713 -0.156003 106 76 78
-2.84467 -0.655462 0.320791 109 75 84
-0.115117 -0.212921 -0.930273 38 45 32
-2.84324 -0.673456 0.293767 180 156 144
-2.83935 -0.703785 0.255201 99 95 94
-2.84026 -0.703492 0.254761 99 95 94
0.352598 -0.250566 1.47249 106 89 79
-2.8282 -0.727635 0.126976 105 77 88
-2.82392 -0.717839 0.0744757 173 148 133
-2.80024 -0.810848 -0.177279 107 78 82
-2.79647 -0.803267 -0.207403 193 173 166
1.16541 0.0652653 0.771526 132 106 83
-2.79121 -0.811373 -0.259825 105 68 69
-0.304421 -1.6063 0.70532 0 0 0
1.59868 -1.01237 0.387342 64 91 55
-2.78136 -0.852556 -0.393199 61 48 50
-1.46638 -1.28796 -0.323271 158 139 135
-1.46733 -1.27034 -0.33049 160 146 135
1.16776 -0.130903 0.804197 105 89 74
-2.83958 -0.577318 0.255068 141 114 118
-2.87008 -0.510807 0.60641 176 157 140
-2.79099 -0.781478 -0.274813 147 111 108
1.01174 0.468556 1.3065 100 67 60
-2.84149 -0.62377 0.312166 131 117 116
-2.8988 0.449525 0.853683 103 71 61
-2.87437 -1.23077 0.245941 118 118 116
-2.8247 -0.6782 0.0837163 135 110 106
-2.84649 -0.869054 0.973969 156 178 199
1.14094 -0.893928 1.81034 250 255 251
-2.91248 -0.338333 1.14346 167 142 135
-2.90376 -0.355531 1.03723 178 154 142
-2.86203 -0.496509 0.509195 174 155 141
-2.95633 -0.842976 1.36225 66 69 76
1.00897 0.485159 1.30095 93 63 53
-2.84072 -0.58662 0.239173 182 159 145
1.5882 0.0665979 -0.0744492 16 16 14
-2.91164 -0.696879 1.1602 174 155 145
-2.83787 -0.531935 0.228072 98 80 84
-2.78019 -0.718025 -0.395922 99 96 95
1.4727 -0.258622 -0.451969 73 94 32
-2.83788 -0.53194 0.22807 98 80 84
-0.123931 0.245181 1.27322 150 122 112
2.7919 -2.95595 -1.82192 251 254 250
-2.82992 -0.609817 0.118646 175 146 139
0.0921148 -0.451411 -0.64357 40 47 44
-2.79527 -1.30746 -0.24859 62 58 59
-2.82736 -0.622622 0.103476 177 153 136
-2.82363 -0.59342 0.0668096 107 86 88
0.0299582 -1.12451 -0.108338 218 209 204
-2.81958 -0.616328 0.0245489 101 70 78
-2.81875 -0.597243 0.0197877 159 131 107
-2.78859 -0.721208 -0.307616 172 149 134
-2.87995 -0.307237 0.883066 176 161 151
1.16896 -0.564428 0.908173 191 167 156
-2.8617 -0.455082 0.493612 168 140 129
-2.83835 -0.49216 0.229217 106 80 81
-2.81792 -0.531703 -0.00196423 104 85 88
-2.81955 -0.573257 -0.0181964 105 74 75
0.947629 0.0853796 1.42867 176 166 139
-2.77637 -0.636652 -0.405991 174 158 143
1.2568 -0.483517 -0.194649 247 225 204
-2.88636 -0.26961 0.817517 103 89 89
-2.88557 -0.247617 0.805115 180 158 146
-2.88348 -0.274262 0.784925 154 137 130
1.32732 0.0410452 1.45193 115 106 107
-2.86743 -0.349583 0.577621 115 86 93
1.16125 -0.491411 0.996386 191 175 160
-2.86292 -0.337863 0.519746 167 140 125
-2.86298 -0.337854 0.519667 167 140 125
-0.654164 -0.566147 1.80196 100 94 82
-2.85836 -0.373987 0.450126 109 85 81
-2.90705 -0.0802829 1.06489 105 81 82
-2.85571 -0.41186 0.431141 189 166 158
-2.85426 -0.407695 0.417131 167 165 160
0.787433 -0.282101 1.53621 99 68 65
-2.84068 -0.438026 0.253279 95 73 73
-2.84048 -0.438042 0.253324 95 73 73
-2.83977 -0.406826 0.243053 101 84 87
0.939121 -0.838522 -0.118082 231 219 202
-2.82982 -0.485415 0.136627 116 84 85
-2.82651 -0.490514 0.0995015 183 150 134
-2.48343 -0.40405 1.29661 201 175 164
-2.82555 -0.505324 0.0787769 104 87 90
0.6666 -0.179816 1.4912 83 40 41
-2.81882 -0.527979 -0.00940192 179 153 141
-2.81681 -0.508127 -0.0152245 124 104 99
1.13019 -1.29942 0.0460216 152 137 130
-2.81464 -0.479761 -0.0236605 180 153 133
-2.81527 -0.509237 -0.0377808 167 151 133
-2.80946 -0.527067 -0.0991492 116 99 95
-2.80505 -0.556054 -0.132174 101 83 79
-2.80621 -0.525792 -0.121953 108 79 81
-2.45506 -0.666685 1.36973 97 85 84
-2.80629 -0.525759 -0.121951 108 79 81
1.23136 -1.04226 0.292444 190 177 158
-2.77551 -0.642545 -0.436648 155 139 121
-2.7743 -0.634662 -0.460025 138 121 105
1.10707 0.475962 1.31381 130 126 110
-2.77555 -0.619838 -0.460045 75 56 50
-2.77531 -0.619872 -0.460016 75 56 50
2.84024 -1.91166 -0.633598 121 129 137
1.80789 -1.91465 -1.47285 41 58 39
-2.90342 -0.125523 1.01577 173 144 128
-2.87181 -0.236268 0.629219 178 141 131
-2.86991 -0.273981 0.579918 162 129 114
1.25642 -0.303945 -0.26392 127 90 84
-2.85593 -0.339191 0.448848 173 150 138
-2.85659 -0.303358 0.442786 84 75 76
-2.83838 -0.374857 0.227712 145 118 109
-0.0532232 -0.369205 1.50635 176 158 145
-2.84204 -0.374578 0.225765 145 118 109
1.14008 0.20677 1.01014 195 194 189
-2.83485 -0.360068 0.187868 127 99 99
0.995548 0.664125 1.47326 45 37 51
-2.82914 -0.381501 0.118528 154 128 116
1.12645 0.364882 1.27014 123 94 97
-2.825 -0.438307 0.0815963 171 147 130
-2.82657 -0.38806 0.102813 132 99 98
-2.81401 -0.473717 -0.0456382 115 87 87
1.05638 0.248343 1.38065 185 172 164
-2.81435 -0.473618 -0.045617 115 87 87
-2.80505 -0.494858 -0.140128 101 74 79
-2.7933 -0.475917 -0.210438 112 84 81
-2.79537 -0.518223 -0.253182 191 159 147
-2.77949 -0.543088 -0.44983 165 149 133
-2.90183 -0.0857891 1.00718 158 135 121
-0.115518 -0.864408 1.7359 143 141 144
-2.8759 -0.173202 0.671846 111 103 101
1.05507 0.0989234 1.42995 75 35 31
-2.8688 -0.207668 0.590343 178 146 126
-2.86667 -0.21002 0.561208 167 140 128
1.20282 -0.112712 0.101979 175 162 148
-2.86308 -0.25442 0.498744 172 147 136
1.10226 -0.633417 -0.173654 113 98 99
-2.85882 -0.221735 0.468091 103 77 75
-2.85889 -0.221738 0.468061 103 77 75
-2.8574 -0.246566 0.46107 157 133 121
-2.84693 -0.304994 0.331352 161 142 128
-2.8446 -0.309498 0.292281 171 152 143
-2.9032 0.441016 0.880337 77 61 62
-2.89342 -1.15661 0.607051 66 51 46
1.21901 -0.0925446 0.214198 46 32 24
-2.86699 -0.343316 0.766887 132 139 156
-2.83455 -0.303265 0.188305 156 145 143
-2.86124 -0.49258 0.480498 196 168 149
1.30083 0.14854 1.34107 43 44 28
-2.82363 -0.374635 0.0374601 174 154 137
-2.9071 -0.0935167 1.05569 196 171 158
1.09779 0.438603 1.32762 95 77 75
-2.81679 -0.398828 0.00250722 170 152 132
-2.87161 -0.419785 0.632723 169 145 130
1.60615 0.0310869 -0.159195 16 17 10
-2.79392 -0.420614 -0.261569 182 164 143
-2.78433 -0.50353 -0.360931 127 102 95
-2.87328 -0.152691 0.631119 179 150 141
-2.86785 -0.119703 0.568579 98 86 90
-2.87946 -0.337025 0.718277 172 149 135
1.04985 0.327554 1.35216 97 74 77
-2.83674 -0.202035 0.336351 179 170 153
-2.87095 -1.35706 0.78401 142 130 119
0.202059 -1.96439 0.503375 142 131 141
-2.79266 -0.414218 -0.263098 178 158 147
0.753597 0.441562 1.29274 171 147 131
-2.8691 -1.59298 0.739569 141 131 128
-2.78332 -0.427919 -0.397579 91 72 72
1.59233 -1.36085 1.64546 255 255 255
-2.90538 -0.405803 1.0437 97 77 81
-2.78356 -0.413302 -0.381571 99 71 73
-2.87421 -1.41878 0.846798 150 140 138
-0.0754088 -1.96524 -3.90147 42 52 47
-2.97864 -0.512872 -0.781987 30 41 36
1.59008 -1.36123 1.60782 134 159 112
-2.88438 -0.257224 0.778296 178 155 148
-2.98875 -0.489578 -0.836873 72 106 54
-2.97298 -0.504452 -0.845775 30 50 48
-0.0242462 0.636397 4.86306 40 52 42
0.235669 0.652675 4.835 30 44 30
-3.03958 -0.335251 -0.470158 21 27 25
-3.04698 -0.369902 -0.555667 20 26 22
1.17853 0.0325139 0.626805 24 27 20
-3.0055 -0.461884 -0.777046 18 29 24
0.464194 0.0248011 1.40245 107 84 77
-3.02341 -0.434286 -0.781001 18 22 20
-3.00976 -0.465546 -0.800908 16 25 17
-5.72828 -1.26485 -0.445671 83 88 91
-3.02338 -0.454772 -0.796344 62 105 48
2.11532 -1.38463 -1.52804 17 25 23
-2.90524 -0.425012 1.05897 184 162 155
-2.88146 0.0649036 0.770901 102 69 75
-2.86404 -0.00554356 0.539264 153 130 115
-2.83927 -0.0778552 0.303267 176 167 156
-2.81663 -0.151368 0.182844 68 69 70
-2.81663 -0.151368 0.182844 68 69 70
-2.82976 -0.121482 0.145739 70 61 62
-2.82511 -0.163145 0.0603593 153 125 115
-2.82396 -0.167577 0.0523447 154 135 120
-2.81918 -0.217667 -0.00140971 158 131 116
-2.80869 -0.208167 -0.139692 134 105 95
-2.78945 -0.311323 -0.333521 163 144 127
-2.78904 -0.306038 -0.337478 101 78 79
-2.78931 -0.305953 -0.337665 101 78 79
-2.78837 -0.308922 -0.346535 100 80 81
-2.78715 -0.324694 -0.368742 152 135 125
-3.08279 -0.323663 -0.524847 19 29 20
-3.08392 -0.324324 -0.599083 21 30 29
-3.02381 -0.364452 -0.734778 20 22 19
-3.03421 -0.386275 -0.780446 22 28 26
-3.01782 -0.423922 -0.878493 71 102 60
-3.00793 -0.419174 -0.881537 21 28 24
-3.14146 0.0408838 0.51716 43 44 38
-2.82921 -0.0831078 0.133023 86 72 69
-2.82057 -0.15355 0.0125702 158 139 124
-2.82101 -0.126449 0.0152759 161 144 121
-2.05934 -0.520893 1.36791 126 88 84
-2.77711 -0.189761 -0.181326 54 56 52
-2.77698 -0.185708 -0.182587 60 62 58
-2.77698 -0.185708 -0.182587 60 62 58
-2.78716 -0.225368 -0.319485 129 123 114
-2.78817 -0.265463 -0.349462 145 134 121
-2.78817 -0.265463 -0.349462 145 134 121
-9.41853 -1.62096 -1.89649 254 255 251
-2.78791 -0.266959 -0.36317 162 148 130
-2.78406 -0.218238 -0.360115 86 73 64
-2.27564 1.31373 4.68237 34 40 36
-2.78406 -0.218238 -0.360115 86 73 64
-2.2695 -0.670365 1.39994 142 113 115
-3.10943 -0.28361 -0.53908 64 98 48
-3.10522 -0.289681 -0.550588 61 97 43
1.09035 0.336901 1.35544 129 82 74
-3.06436 -0.305733 -0.664548 31 39 38
0.70987 0.100344 1.39867 85 50 54
-3.08467 -0.290753 -0.665298 46 74 34
-3.04584 -0.329529 -0.760673 9 19 17
-3.05004 -0.363871 -0.792568 20 27 22
-3.05956 -0.321019 -0.771442 19 22 20
-3.05312 -0.354629 -0.810046 16 20 19
-3.06042 -0.349871 -0.837929 11 15 16
-5.42932 -1.39258 -0.525417 247 255 251
-3.05679 -0.365393 -0.862969 54 87 43
-3.05932 -0.352176 -0.853642 20 30 26
-3.05483 -0.353274 -0.864402 16 18 17
1.59005 -1.39351 1.63797 218 233 234
-2.98041 -0.413416 -0.917105 18 24 22
1.09057 0.149142 1.41584 120 98 85
-2.91802 0.232621 0.999634 51 49 53
0.747096 0.579649 1.24699 144 114 114
-2.84567 -0.00249261 0.290273 106 89 77
0.985995 0.164526 1.4014 87 38 33
-2.84379 0.0153742 0.259016 152 154 149
-2.75229 -0.014792 0.220043 121 126 122
-2.82958 -0.0479563 0.121261 93 74 69
-1.24569 -0.587127 1.46728 100 92 66
-2.79485 -0.14932 -0.276505 123 115 103
-2.79603 -0.151736 -0.285057 123 115 112
-2.79282 -0.153686 -0.293093 122 118 103
-2.79177 -0.165454 -0.324702 129 120 103
-2.7907 -0.158781 -0.324979 111 93 89
1.07677 0.197031 1.39854 116 94 80
-3.08432 -0.184901 -0.479417 21 23 20
-3.10732 -0.209947 -0.497589 51 81 31
-2.90121 0.127207 0.967352 159 129 119
-3.10488 -0.231665 -0.508497 13 17 16
-3.11274 -0.216623 -0.517887 13 16 14
0.763538 0.324712 1.32752 189 155 144
-3.11778 -0.208443 -0.537616 14 15 11
1.49177 -0.203061 -0.494294 36 37 23
-3.12525 -0.219671 -0.565305 16 18 16
-3.10766 -0.267527 -0.628437 23 30 26
1.24698 -0.565974 -0.0446937 204 175 158
-3.10225 -0.271505 -0.644321 21 27 26
-3.0875 -0.279481 -0.667531 17 29 27
-3.0996 -0.269383 -0.670024 17 28 22
0.400698 0.122029 1.3647 184 140 124
-3.05953 -0.286594 -0.683846 18 24 20
-3.06519 -0.275195 -0.776315 13 14 16
-3.06436 -0.275541 -0.776466 13 14 16
-3.07333 -0.311985 -0.818954 16 16 18
1.26903 -1.04821 0.0252033 102 88 89
-3.07667 -0.294973 -0.832647 15 16 16
-3.07074 -0.305146 -0.869555 18 17 18
0.385339 0.014522 1.39787 211 193 184
-3.24327 -0.00447429 -0.0379442 22 31 38
0.703911 -0.967424 -0.103915 188 177 173
-3.23898 -0.000740388 -0.0573457 31 30 35
-3.2501 -0.106755 -0.336498 26 21 32
-2.913 -0.37921 1.14777 175 157 150
-2.62256 -0.650336 1.36027 200 191 186
-3.24835 -0.109893 -0.345359 28 26 31
-2.79692 -0.115295 -0.264732 153 141 131
-2.79337 -0.134862 -0.287304 105 91 82
-3.10077 -0.148305 -0.505471 15 18 13
-3.11312 -0.150188 -0.523361 10 16 14
-3.12894 -0.170186 -0.57483 17 18 17
-3.13099 -0.170244 -0.575113 17 18 17
1.40729 -1.53406 0.636558 254 254 253
-3.21084 -0.186001 -0.62606 153 187 180
-3.21029 -0.20309 -0.631348 157 155 155
0.990378 0.0598241 1.43668 97 57 50
-3.21003 -0.202982 -0.631437 157 155 155
-2.68137 -0.731281 1.35504 196 215 230
-3.13146 -0.199947 -0.661938 20 28 22
-3.06622 -0.248897 -0.756146 50 92 34
-3.08234 -0.259362 -0.801368 11 12 16
-2.73885 0.488961 1.31975 49 72 44
-2.90135 0.338774 0.946348 111 109 99
-3.16272 0.111422 0.20968 20 24 20
-3.23461 0.0870347 0.0753797 27 48 20
-3.13146 -0.00853127 -0.170512 21 31 23
-2.78997 -0.0801247 -0.335446 133 133 125
-2.79562 -0.0686214 -0.362439 64 52 52
-2.79518 -0.0725105 -0.372457 77 63 63
-2.7937 -0.0585401 -0.383168 65 54 53
-2.91297 -0.352389 1.14575 177 147 139
-3.10874 -0.1182 -0.515367 17 24 22
-3.1327 -0.136459 -0.582383 13 16 13
-3.12912 -0.166684 -0.68761 15 27 23
-3.08491 -0.252041 -0.863356 8 12 14
-3.07867 -0.243191 -0.890127 11 11 11
-3.00522 -0.260635 -1.0197 19 20 18
1.2219 -1.35709 0.473903 196 167 140
-2.7503 0.55862 1.34176 32 60 33
-2.90128 0.388051 0.913814 110 72 69
-3.3143 0.205454 0.388149 24 28 23
-3.3143 0.205454 0.388149 24 28 23
-3.26378 0.114074 0.025317 14 22 19
-3.25816 0.091745 -0.0148372 37 54 38
-3.19611 0.0161126 -0.175393 29 37 28
-2.89592 0.0574928 0.904768 101 76 80
-2.79738 -0.0491182 -0.384753 84 57 51
-2.79264 -0.0189418 -0.40297 48 36 38
-3.12427 -0.0800484 -0.6006 11 9 12
1.46835 -0.23225 -0.367471 28 41 25
-3.06978 -0.169377 -0.769425 12 14 13
-3.22128 0.344951 0.610644 43 66 54
-2.88628 0.404367 0.691321 85 61 51
-0.103671 0.288001 1.25873 203 183 159
-2.79334 -0.00552762 -0.402824 108 100 89
-0.98993 -0.299136 -0.925026 71 86 29
-2.90854 -1.6405 0.810902 115 109 110
-2.79049 0.0182064 -0.399485 61 50 48
-2.79206 0.0292157 -0.413114 98 94 83
-3.13515 -0.106206 -0.708072 9 19 13
1.43763 0.500063 1.24154 94 112 68
-3.09311 -0.177102 -0.906266 10 10 12
-3.26297 0.161433 -0.196675 19 24 20
-5.86943 -1.91495 -1.88137 239 249 250
-3.07572 -0.1854 -0.926899 15 20 17
1.34601 -1.11532 0.339967 42 41 29
-3.02438 -0.191273 -1.03082 18 16 13
-2.86307 0.323915 0.324223 27 22 24
0.442912 0.291445 1.30931 168 145 129
-2.88099 -1.6457 0.625334 163 163 165
-3.2808 0.141771 -0.0622537 17 22 16
-0.550047 -0.635888 -0.479886 57 50 47
-2.78618 -0.38582 -0.359386 164 142 129
-2.78993 0.0431676 -0.406978 54 44 42
2.57796 -1.81638 -0.837581 34 48 45
0.555866 -0.0824882 1.446 180 150 128
-2.79116 0.0399442 -0.416118 62 51 50
-2.89227 0.100728 1.08856 132 100 98
-3.27109 0.195269 -0.146587 29 19 40
-2.78966 0.0530084 -0.434833 69 55 40
-1.11756 -2.38686 4.77719 0 0 0
1.11784 -0.54127 1.61983 36 35 33
-3.06595 -0.149778 -0.999647 33 43 34
-3.30298 0.343006 0.307414 29 44 26
-3.26191 0.338006 0.342772 30 48 21
-2.9033 -1.12571 0.695712 78 62 63
-0.117321 -0.15848 1.40718 216 200 177
-3.28174 0.272995 0.0890028 70 71 45
1.25914 -1.67368 1.08258 191 191 189
-2.8577 -1.17726 0.437712 99 86 79
-3.23216 0.0647005 -0.515545 73 102 51
-2.89049 0.0296179 0.848661 147 126 109
1.47112 -1.37956 0.739884 39 52 43
-3.1781 -0.00587485 -0.73731 71 65 71
0.989928 0.343096 1.34195 91 56 49
-3.04747 -0.299747 -0.692622 56 92 48
-3.32666 -0.0284929 -0.779351 204 230 224
-3.12225 -0.0388631 -0.79412 25 27 24
-3.108 -0.0866647 -0.923388 12 21 19
-3.36896 0.181116 -0.209124 152 153 161
-3.33709 0.0317884 -0.629577 142 160 160
-3.33984 0.0337932 -0.637836 121 128 126
1.00668 0.451185 1.31022 158 122 123
-3.31542 -0.066025 -0.904825 108 109 121
-3.30743 -0.103923 -1.04982 98 85 91
-2.88251 -1.65674 0.686442 80 78 81
0.393101 0.193239 1.33695 197 174 160
-2.87708 -1.64223 0.609301 135 138 131
-2.87599 -1.62578 0.554655 137 137 137
0.626021 0.227556 1.32924 152 157 159
-2.87247 -1.62236 0.53821 135 137 136
1.89632 -1.20186 1.50326 119 134 126
-2.8487 -1.5677 0.538994 122 120 107
-2.85823 -1.57385 0.36242 130 134 137
1.44262 0.406103 0.970361 75 88 70
-2.85851 -1.5689 0.344453 134 138 137
0.72499 0.46075 1.28117 169 137 128
-2.85786 -1.56926 0.345048 134 138 137
-2.85527 -1.56526 0.328117 135 137 134
0.786691 -0.060298 1.45964 74 40 35
-2.84401 -1.52268 0.171278 137 138 136
-2.90143 -0.66092 1.03195 114 84 89
-2.87342 -1.51197 -0.0816784 85 86 91
-2.86689 -1.38506 0.74772 153 137 127
1.18393 -0.712522 0.78394 213 196 185
-2.83013 -1.46208 0.291506 150 135 124
-2.82439 -1.44865 0.217337 190 173 163
-2.82838 -1.48681 0.0327954 146 148 147
-2.91976 -1.23526 1.09784 154 156 153
0.974332 -0.720126 -0.150041 105 109 108
-2.80668 -1.44203 -0.0334417 126 117 108
-2.82333 -1.46252 -0.0546994 138 138 136
-1.71711 -0.665156 1.4411 127 102 89
-2.82087 -1.45699 -0.10343 126 126 124
0.70565 -0.0187903 1.43883 70 44 46
-2.8194 -1.44367 -0.280168 66 68 67
-2.89684 -1.16442 1.05455 170 157 139
-4.69062 -1.88185 -1.98945 139 154 118
-2.86356 -1.27183 0.247717 50 45 40
-2.81391 -1.34123 -0.0608006 72 67 61
-2.81391 -1.34123 -0.0608006 72 67 61
-2.8166 -1.34335 -0.0753469 69 67 64
-2.81094 -1.35053 -0.0885816 76 72 63
-2.53625 0.116192 1.11552 170 139 127
-2.81595 -1.37013 -0.129955 121 126 122
0.0957285 0.680013 1.84544 10 17 11
-2.66087 -1.45915 -0.105477 124 127 120
-5.39644 -1.19806 -0.722668 118 138 136
-2.80371 -1.38622 -0.202801 67 66 65
-2.80371 -1.38622 -0.202801 67 66 65
-2.77902 -1.39676 -0.276099 104 106 103
-2.86277 -1.17988 0.456032 132 134 129
0.904201 0.915038 2.74197 30 52 30
-2.86012 -1.18705 0.402055 59 49 47
-2.8604 -1.20983 0.352073 121 117 106
0.402982 0.0346591 1.39059 205 189 173
-2.85042 -1.22231 0.302303 62 59 58
-2.821 -1.3196 -0.00387982 72 62 63
-2.79632 -1.34948 -0.220418 112 116 115
-2.91315 -0.985745 1.01747 69 65 63
-2.90648 -1.01735 0.915657 64 63 61
-2.91928 -1.06137 0.896476 59 43 46
-2.90515 -1.02244 0.901971 68 58 59
-2.89305 -1.0491 0.834588 66 58 52
-2.89356 -1.05737 0.80372 67 62 59
0.20446 0.522637 1.21412 213 201 182
-2.89334 -1.06095 0.788599 69 64 60
0.990831 -0.0309182 1.46798 51 33 33
-2.88531 -1.09354 0.687819 60 53 42
-2.88388 -1.10258 0.657952 69 62 56
1.24427 -1.06288 0.156351 222 206 187
-2.87397 -1.11878 0.619593 66 58 50
0.844316 -1.15918 -0.0241807 172 154 146
-2.88128 -1.13095 0.594752 135 135 134
-2.83323 -1.15779 0.267824 167 151 136
-2.79404 -1.27781 -0.277955 134 131 124
1.02358 0.255626 1.37397 154 138 122
-3.01563 -0.115562 -1.07377 99 81 79
-2.92101 -0.940402 1.16495 72 66 66
-2.91301 -0.901637 1.19511 124 122 110
-2.90244 -0.063489 1.00316 107 85 88
-2.87779 -0.316529 0.709133 77 61 63
1.25573 -0.514891 -0.182518 239 225 210
-2.89901 -0.243197 1.0069 163 140 132
-2.91748 -0.971025 1.06106 78 79 75
-2.77479 -0.74505 -0.476321 81 71 89
-5.96487 -0.627074 -1.74787 36 48 37
-2.86504 -1.05978 0.654315 152 142 133
-2.89488 -0.267094 0.915142 108 71 79
0.509687 0.426001 1.27655 142 118 104
-2.86277 -1.01888 0.655804 181 165 152
-3.30237 -0.0753894 -0.923758 193 203 197
-2.45967 1.26542 5.48854 49 70 47
-2.82086 -1.10095 0.138573 165 151 142
-2.76614 -1.16266 0.0930523 174 180 192
-2.84651 -0.914447 0.403031 174 149 137
-2.8073 -1.0073 -0.0793483 182 169 162
-2.88737 -1.22847 0.354513 75 64 67
-0.565059 -0.382176 1.44948 194 182 156
-2.78062 -1.09037 -0.309488 143 129 115
-2.82248 -0.474129 0.0479115 149 126 111
0.121845 -0.655479 -0.256498 199 185 174
-2.90531 -0.731229 1.08983 192 173 154
0.448263 -0.130644 1.45157 182 166 151
-2.85177 -0.396996 0.379942 103 89 87
-2.88658 -0.746679 1.02932 167 160 149
1.38638 -0.833468 0.275244 71 72 44
-2.87075 -0.34538 0.618727 79 64 67
-2.83274 -0.846239 0.498657 206 200 181
-2.85093 -0.391312 0.366589 107 78 70
1.13571 -0.176528 1.24164 178 149 127
-2.78263 -1.00636 -0.332062 151 133 119
-0.0665555 -1.1941 -0.103183 107 71 80
-2.82087 -1.45697 -0.103435 131 131 131
-2.89316 -0.64045 0.918508 183 166 156
-2.89595 -0.615558 0.926815 121 98 90
-2.89626 -0.577123 0.966218 170 147 143
-2.93652 -0.569399 0.931697 170 147 143
-2.93121 -0.478877 1.22899 113 132 131
-2.87304 -0.529991 0.816704 188 179 164
1.41314 -0.0306474 0.706345 66 50 35
-2.87832 -0.600305 0.719898 172 149 132
-2.87767 -0.564294 0.707115 184 155 144
-2.82004 -0.711808 0.0385053 177 150 144
0.0823027 -0.688781 -0.234733 226 217 211
-2.77951 -0.830285 -0.39819 142 123 121
-2.86326 -0.538518 0.53454 178 152 140
-2.88799 0.244602 0.805174 171 152 136
-2.78212 -0.796874 -0.34709 168 151 136
-2.87485 -0.4146 0.774831 193 189 180
-2.87144 -0.478376 0.635013 174 147 135
-2.79229 -0.660538 -0.258904 168 146 132
-2.86947 -0.412502 0.597321 162 132 118
-2.82608 -0.467569 0.37067 206 192 176
-2.83216 -0.496575 0.160578 177 147 134
-2.86348 -0.359877 0.516748 166 139 127
-2.82009 -0.476898 0.0380572 173 146 127
-2.80427 -0.528581 -0.152072 92 70 73
-2.77456 -0.602301 -0.471618 145 129 120
2.06168 -2.05853 -1.4266 61 86 55
-2.86096 -0.290592 0.504963 178 148 138
2.19365 -1.8617 -1.12551 24 39 32
2.15207 -1.69913 -1.15012 37 61 35
2.1435 -1.73353 -1.1927 35 58 32
-2.91666 -0.0885838 1.09179 57 48 51
-2.8179 -0.380317 -0.0190155 154 134 119
-2.89526 -0.0416527 0.908056 161 143 128
-2.88966 -0.080942 0.844034 159 141 121
-2.87727 -0.130864 0.666218 85 70 64
-2.78705 -0.404936 -0.355924 152 133 113
-3.0235 -0.419172 -0.538132 22 27 19
0.284687 0.692611 4.84933 38 43 33
-2.88776 -0.00913113 0.813146 162 140 127
-2.00934 -0.720962 1.43966 202 180 169
-2.87117 -0.0660056 0.635427 125 99 98
-2.82497 -0.222437 0.070651 158 132 119
-3.04452 -0.382016 -0.54893 20 21 25
-3.00004 -0.433284 -0.732719 25 30 25
-3.01169 -0.472125 -0.822721 15 26 18
2.05932 -1.45332 -1.5977 12 23 17
2.05458 -1.38759 -1.6044 15 24 20
1.24036 -0.545461 0.0422498 176 144 122
0.0403578 0.801036 4.72726 62 82 57
-3.07503 -0.336147 -0.588813 23 27 24
2.96248 0.0260435 -0.0941469 153 138 135
-3.07503 -0.336147 -0.588813 23 27 24
-1.9594 0.288853 1.10176 188 163 146
-3.03932 -0.39632 -0.778262 13 19 18
-3.0543 -0.384014 -0.806171 74 108 66
1.00881 0.732436 1.68674 168 157 135
-3.03076 -0.428269 -0.846862 15 26 21
0.963236 -0.0318272 1.46506 55 37 34
-3.03076 -0.428269 -0.846862 15 26 21
-0.000528108 1.07398 4.67116 47 67 36
0.0076272 0.92182 4.6027 59 90 50
-2.90909 0.14638 1.0139 41 33 37
-3.13435 0.0370503 0.506986 144 151 144
-3.11117 0.00518906 0.328419 159 140 122
1.25511 -0.850653 -0.0715311 162 125 118
-2.96977 -0.041205 0.344696 147 128 109
-2.82014 -0.117649 0.0260674 151 131 121
-2.78901 -0.238817 -0.347221 89 69 71
0.915798 -1.31696 0.0342395 112 98 93
-3.06935 -0.25961 -0.469686 27 32 26
-0.22574 -0.00291968 1.35625 148 118 111
-3.09765 -0.244505 -0.49994 15 17 14
2.09567 -0.642358 1.00393 190 215 219
-3.10431 -0.24571 -0.514796 17 19 16
-0.105309 0.149856 1.30458 221 200 182
-3.09827 -0.275483 -0.544927 14 19 17
-3.05474 -0.342357 -0.791832 16 25 20
-3.07099 -0.342741 -0.839265 46 88 24
-1.96796 -0.779424 1.4591 105 74 78
-3.32025 0.0836665 0.421373 35 38 31
-2.80863 -0.0241767 0.263848 75 84 83
-2.8016 -0.0351856 0.209694 189 180 170
-2.84471 0.015898 0.220945 138 125 116
-3.02678 -0.0152646 0.0866326 117 119 87
1.00295 0.329398 1.34801 105 61 61
-2.80992 -0.180924 -0.315775 117 119 118
-2.79129 -0.196374 -0.330339 111 85 74
-2.90129 -0.303825 1.00517 92 80 82
-2.78962 -0.200164 -0.345658 151 132 124
-2.79144 -0.181094 -0.334983 157 166 159
1.12562 -0.142373 1.35588 102 74 58
-2.7913 -0.177881 -0.348633 134 124 116
1.67158 -0.222958 2.15106 242 253 252
-3.08175 -0.217179 -0.481835 16 24 16
-3.11883 -0.251857 -0.605101 20 20 18
-0.0584722 -0.664821 -0.274013 172 133 123
-3.04543 -0.290775 -0.690572 11 25 18
-3.04885 -0.277775 -0.754969 13 20 18
-3.06332 -0.331111 -0.860531 34 69 19
0.642219 0.406825 1.28837 160 144 119
-3.06256 -0.334215 -0.872005 36 77 22
-3.28566 0.10117 0.246897 127 128 130
-3.0209 0.0546318 0.17765 27 37 25
-3.24971 -0.110117 -0.330453 40 37 46
1.10354 -0.0990487 -0.748586 119 111 108
-3.2492 -0.100711 -0.348373 24 25 28
-2.79029 -0.112226 -0.303742 143 130 120
1.32321 0.063115 1.38679 33 29 22
-3.08547 -0.13574 -0.486636 24 23 23
1.27765 -1.34539 0.081848 182 184 164
-3.10291 -0.170426 -0.513118 18 19 20
-3.12113 -0.187402 -0.543692 12 16 16
-2.8889 0.157376 0.80268 116 84 80
-1.95712 -0.210267 1.26993 125 84 77
-3.13866 -0.195822 -0.571294 56 85 39
-3.13866 -0.195822 -0.571294 56 85 39
-3.12998 -0.202234 -0.652896 18 29 21
-3.1023 -0.213369 -0.716374 15 19 18
-3.1023 -0.213369 -0.716374 15 19 18
-3.08532 -0.247956 -0.821277 14 8 15
-3.0734 -0.295027 -0.87625 15 13 16
1.24742 -0.30144 -0.145874 120 90 80
-3.08464 -0.278303 -0.865414 44 87 33
-3.32114 0.236246 0.533033 67 74 78
-0.112493 0.194139 1.28953 193 170 156
-3.2678 0.0910865 0.209664 28 34 30
-1.71939 -0.491494 1.38367 135 99 90
-3.27785 0.107452 0.208748 11 22 15
-3.14287 0.0961586 0.211164 22 28 24
-3.14496 0.0848223 0.197182 25 30 28
-3.23795 0.0570127 -0.0129168 87 122 56
-3.1094 -0.0173952 -0.186932 20 31 15
-3.09723 -0.0168871 -0.198239 13 17 16
-3.05675 -0.0372109 -0.223093 36 63 23
-2.79622 -0.0649484 -0.351443 67 54 49
-3.10856 -0.115854 -0.528606 16 18 13
-3.11704 -0.146334 -0.54646 18 20 19
-3.13306 -0.146922 -0.582054 9 14 16
-3.13273 -0.146977 -0.582144 9 14 16
-3.1344 -0.133055 -0.607223 7 7 9
-3.1344 -0.133055 -0.607223 7 7 9
-2.9002 0.339925 0.879624 83 83 75
-3.13298 -0.177642 -0.68757 13 15 14
-3.12135 -0.186938 -0.708647 16 21 17
-3.12427 -0.190101 -0.71453 53 93 39
-3.10672 -0.182941 -0.722558 15 18 19
-3.05545 -0.225916 -0.779474 11 17 13
-3.08596 -0.228111 -0.904763 9 16 14
-1.02881 -1.12578 -0.351685 236 226 214
-3.26734 0.078359 -0.0290199 44 68 30
-3.24277 0.0340912 -0.135981 26 33 25
-3.06185 -0.0594975 -0.485956 18 18 17
-3.13905 -0.111476 -0.682351 11 9 14
-3.13905 -0.111476 -0.682351 11 9 14
-3.13214 -0.140786 -0.71408 15 20 15
-3.09992 -0.192872 -0.827086 12 12 12
-2.8989 -0.33063 0.977499 92 77 78
-3.1083 -0.15807 -0.828295 29 69 8
-3.08587 -0.196609 -0.84721 12 12 14
-3.08258 -0.205546 -0.914223 14 14 16
1.51095 -0.734758 0.222874 88 111 66
-3.10745 -0.185312 -0.897258 13 11 16
-3.21886 0.339918 0.616715 24 26 25
-3.15873 0.331869 0.574409 13 23 22
-0.16651 -0.588787 1.5507 106 91 91
-3.26491 0.139361 0.00482608 11 14 13
-2.79249 0.0334621 -0.414403 93 91 80
-3.12603 -0.0751644 -0.684819 6 12 14
-0.457469 0.11154 1.29429 140 143 136
-3.13526 -0.0640322 -0.683627 9 10 12
-2.91698 -0.588827 1.21838 78 73 77
1.48099 -1.3283 1.59609 220 229 226
-3.10141 -0.151946 -0.934734 9 13 10
-3.28299 0.158365 -0.105673 14 16 13
0.465087 -0.0337211 1.42124 170 141 125
-2.91379 -0.569182 1.19384 126 103 110
-3.27416 0.109568 -0.172112 16 21 22
0.880059 0.864955 2.79819 21 21 22
0.00919609 0.814899 4.69978 43 57 41
-3.27147 0.140791 -0.182767 35 52 33
-2.89628 -0.0653287 0.94199 96 70 71
1.05168 0.230664 1.38646 175 152 139
-3.16946 0.103613 -0.232461 12 12 10
-2.97723 -0.889764 1.39997 49 43 58
-2.91979 -0.577976 1.25325 131 119 110
-3.0167 0.0936796 -0.271606 21 46 15
-2.86016 -0.728589 0.505624 95 89 87
1.29977 0.378099 1.28487 145 140 139
-3.12623 -0.0603558 -0.712856 9 12 11
-3.07827 -0.12644 -0.993142 13 13 15
-3.05588 -0.155281 -1.0198 38 74 21
-2.86788 -0.707871 0.596429 113 89 83
0.71012 0.254028 1.34693 185 158 139
-3.30801 0.382878 0.415072 35 49 32
-3.28315 0.233963 0.00463831 26 39 26
-2.90025 0.128271 0.95989 86 66 68
1.49049 0.249456 0.325487 13 12 14
-3.29159 0.184669 -0.0715177 13 18 14
-0.0575971 -0.0851049 1.38968 131 123 123
-2.8501 -0.171209 0.347323 137 117 108
-3.29373 0.17386 -0.10596 11 13 11
1.16707 0.198484 0.71521 50 43 31
-2.86582 -0.771737 0.5983 132 107 109
-3.23728 0.138918 -0.22992 12 15 8
-3.2608 0.162687 -0.219519 11 14 9
1.23884 -1.2137 0.227091 212 195 169
-3.24467 0.0896218 -0.428745 23 30 17
-3.10606 0.017899 -0.588103 12 10 14
-3.12633 -0.000704665 -0.652225 13 13 14
1.35172 -0.163885 1.5271 90 82 80
-3.13956 -0.011213 -0.73389 71 67 59
-3.09577 -0.0511973 -0.796815 6 11 7
-3.09748 -0.0464581 -0.811427 11 13 12
0.00727828 0.712003 1.88579 6 7 1
-3.12785 -0.0725789 -0.91476 86 86 84
-3.39893 0.300962 0.120654 98 86 88
0.80222 -0.214852 2.14078 95 113 110
-3.33385 0.00915109 -0.685093 133 140 148
0.882978 -0.913442 -0.11007 203 195 188
-3.32917 -0.0228179 -0.778678 131 131 143
-3.37314 -0.0796414 -0.99178 122 107 114
-3.3125 -0.106931 -1.05585 104 103 104
1.55958 0.169784 0.220351 68 85 60
-2.93118 -1.71016 0.749549 88 84 82
1.03051 -0.269861 1.55431 80 78 47
-2.87336 -1.512 -0.0806986 87 87 92
-2.94053 -1.11911 0.764593 156 157 144
-2.83465 -1.33617 0.573657 113 127 140
0.947514 -0.19437 1.51542 74 40 39
-2.82767 -1.33968 0.578946 113 127 140
-2.89497 0.118429 0.906206 102 81 84
-2.87027 -1.28039 0.586566 120 100 101
-2.8261 -1.33048 -0.041722 75 72 69
1.11687 -0.17949 1.44621 88 85 89
-2.82273 -1.33972 -0.0691977 72 73 70
-2.79623 -1.41714 -0.284815 110 111 113
-2.85325 -1.18601 0.420987 70 64 58
-2.86577 -1.18022 0.413779 70 64 58
0.588257 -0.545677 -0.246802 208 182 177
-2.8615 -1.19185 0.385299 63 61 57
-2.85339 -1.21589 0.3152 62 62 57
-1.78389 -0.03415 1.22344 170 148 134
-2.85336 -1.22385 0.286086 63 59 51
-0.0790787 -0.25184 1.43832 224 212 196
-2.83514 -1.27266 0.147168 71 70 66
-2.9113 -0.266864 1.1166 94 72 78
-2.83844 -1.27936 0.115145 68 68 66
1.49815 -1.44592 0.68652 78 95 82
-2.82882 -1.31258 0.0159508 65 64 60
-2.82667 -1.31645 0.00130807 73 69 66
-2.88796 -1.07591 0.745719 67 68 63
-2.87069 -1.14561 0.528292 45 42 40
2.0179 -1.12866 1.95569 137 147 147
-2.84235 -1.15718 0.400285 134 124 114
-2.79656 -1.16456 -0.153484 187 169 159
0.862299 0.01634 1.44087 92 52 42
-2.90392 -0.787456 1.11281 184 160 147
0.300417 -1.8329 -3.97261 32 52 30
-2.87253 -0.889314 0.714778 167 147 136
-2.87126 -0.858469 0.650658 195 175 167
-2.82909 -0.972585 0.200111 177 156 143
-2.88748 -0.74861 0.847072 191 173 158
-2.8611 -0.830348 0.568632 195 172 164
-2.84155 -0.894949 0.288022 173 152 132
1.05367 0.046985 1.44984 107 88 83
-2.8655 -0.742573 0.573963 183 163 147
-2.82228 -0.853739 0.0760391 169 146 128
-0.154697 -0.610478 1.55708 196 177 153
-2.78224 -0.987894 -0.331571 163 154 143
0.563429 0.270286 1.30283 175 170 163
-2.87609 -0.538678 0.817811 182 172 156
1.23898 0.0204195 1.50028 72 58 49
-2.80363 -0.779958 -0.137855 102 75 82
-2.80603 -0.767699 -0.157494 177 151 138
-2.8819 -0.499671 0.767484 170 141 130
-0.286053 1.06611 3.4611 114 138 142
-2.86101 -0.583869 0.508581 165 136 131
-2.82844 -0.673036 0.124043 178 149 131
-2.79401 -0.735297 -0.247998 165 140 121
-2.7868 -0.625335 -0.0826355 93 106 115
-2.7807 -0.733039 -0.416295 137 119 108
-2.91266 -0.296657 1.13999 162 138 136
1.31809 -0.280944 1.58961 70 61 59
-2.90185 -0.325167 0.964221 166 136 128
0.935527 -0.0490884 1.4685 72 47 40
-2.77687 -0.695193 -0.43992 125 106 91
-2.91898 -0.169998 1.11798 60 56 54
0.0101787 -1.62947 -3.46229 43 62 42
-2.86728 -0.318226 0.559556 106 71 70
1.40602 0.450328 1.00104 9 11 11
2.79807 -1.88918 -0.607222 251 255 254
-2.89067 -0.214865 0.882897 168 143 132
-2.89204 -0.153668 0.87761 158 132 120
-2.88496 -0.235191 0.789568 176 154 142
-3.28584 0.0985135 0.234365 84 90 87
0.928891 0.386014 1.32028 128 110 104
-2.86094 -0.199951 0.498268 119 82 81
-2.90585 0.343827 0.921979 59 52 51
0.297644 0.354848 1.27405 104 88 74
-3.02066 -0.392076 -0.49644 24 28 27
-3.00165 -0.434819 -0.746413 17 25 20
-2.91007 0.411045 0.960139 55 51 48
-2.76861 -0.288684 -0.209559 183 185 172
2.95908 -0.102878 -0.0573995 28 25 20
-3.24986 -0.0824484 -0.323635 22 23 24
-3.0471 -0.341968 -0.651373 30 36 24
-2.9855 -0.452916 -0.893999 43 56 43
-2.98165 -0.019728 -0.29451 29 43 37
-3.05178 -0.356405 -0.884243 17 25 20
-2.92778 0.385934 0.944446 40 37 40
1.4975 -0.19487 -0.474712 31 45 29
-2.99266 -0.375416 -0.942355 17 23 19
-3.24267 0.0981162 -0.169391 6 8 6
-2.82115 -0.546876 0.0652627 98 84 78
-2.90841 -0.0350306 1.05825 105 74 78
-3.13724 -0.27821 -0.907219 131 181 171
-3.42632 0.442492 0.563055 136 148 147
-2.90335 0.405718 0.884687 73 44 43
-2.78733 -0.785011 -0.319342 200 191 182
0.771115 -0.103919 1.47129 84 55 49
-2.79207 -0.0867809 -0.387091 48 47 42
-3.39805 0.289682 0.124435 125 122 130
-2.83351 -0.646859 0.471355 124 127 136
1.25156 -0.834418 -0.0279627 95 64 55
-2.80833 -1.35996 -0.11646 74 68 65
0.712059 -0.179933 1.49432 76 55 43
-2.84301 -1.25128 0.242275 131 133 132
-2.81113 -0.0406497 0.188648 190 175 156
2.17841 0.551102 1.24674 161 125 113
-2.79747 -0.176587 -0.299719 107 111 114
-1.60933 -0.498977 1.40624 137 130 116
-3.12755 -0.0870162 -0.986626 111 99 99
-2.99549 -0.089895 0.123842 87 89 86
-2.87578 -1.62842 0.581407 97 98 101
-2.95447 -1.41969 0.979487 120 115 122
-2.8978 -1.49569 0.878051 115 108 116
-2.87043 -1.49212 0.797936 174 166 164
-2.82701 -1.50393 0.28885 145 131 123
-2.83061 -1.49762 0.300265 147 133 123
-2.88671 -1.31108 0.967433 158 147 142
-2.86603 -1.39919 -0.135825 178 180 178
-2.92629 -1.12223 1.17919 78 78 76
-2.90562 -1.06644 1.14683 158 153 139
-2.90273 -1.26173 0.326225 154 155 150
-2.94134 -1.00037 1.29072 139 139 139
-2.95706 -1.05999 0.940845 152 155 148
-2.90534 -1.11182 0.738068 67 57 58
-2.83214 -1.20823 0.27107 130 128 124
-2.80115 -1.27475 -0.0568481 156 147 138
-2.79121 -1.29456 -0.209048 159 144 125
-2.78895 -1.35703 -0.254203 58 68 71
-2.94225 -0.863611 1.3734 85 82 91
-2.94788 -0.881789 1.35491 121 124 124
-2.9529 -0.848732 1.34758 69 82 93
-2.89643 -0.950692 1.01018 163 163 161
-2.8889 -0.963395 0.915331 122 111 108
-2.59374 -0.0809567 1.17532 168 131 119
-2.8742 -1.01035 0.736419 134 112 109
-2.85837 -1.09499 0.578332 164 165 160
-2.84633 -1.07444 0.453136 166 149 133
-2.79174 -1.28461 -0.251363 121 121 111
-2.92987 -0.806902 1.35968 107 108 110
-2.93529 -0.777547 1.34933 182 168 164
-2.91796 -0.86628 1.26386 140 136 125
-2.90813 -0.886711 1.15605 119 103 104
1.53737 -0.529457 0.306798 46 35 30
-2.79045 -1.10161 0.0261435 113 120 127
-1.94038 0.00498428 1.19869 164 129 114
-2.78014 -1.11431 0.000788509 117 126 134
-2.7988 -1.15854 -0.133501 173 156 144
0.811635 0.0161485 1.43723 101 73 71
-2.78736 -1.22298 -0.301661 90 78 81
0.61546 -0.0639849 1.44417 117 76 70
-2.78721 -1.16554 -0.29005 150 136 122
-2.92681 -0.7504 1.36365 136 130 134
-2.93248 -0.691793 1.34769 254 255 254
-2.90697 -0.769358 1.11857 179 161 153
-2.88267 -0.777812 1.03739 68 62 64
1.54351 0.167763 0.164851 16 21 13
-2.82962 -1.0221 0.197869 178 170 165
-2.82526 -1.04832 0.13821 124 103 102
-2.7435 -1.11242 0.0903434 141 140 151
1.24101 -0.372029 -0.0383679 201 166 144
-2.80439 -1.05383 -0.0877273 175 156 141
1.06758 -0.169672 1.52495 61 30 28
-2.78955 -1.12034 -0.310325 56 53 53
-5.5834 -1.32768 -0.403902 250 253 252
-2.92672 -0.658162 1.34108 251 255 252
-0.613956 -0.335749 1.43647 147 135 120
-2.92604 -0.622704 1.31991 128 119 122
-2.91852 -0.712605 1.27038 173 164 150
-2.92055 -0.670053 1.26047 116 95 100
-2.24232 -0.161443 1.23304 104 65 68
-2.92055 -0.670053 1.26047 116 95 100
-2.88408 -0.731794 1.02587 148 137 131
-2.88133 -0.801908 0.802546 118 113 115
-2.88127 -0.801896 0.802561 118 113 115
-2.86199 -0.87967 0.582854 191 173 158
0.71574 -0.0526975 1.45022 82 48 41
-2.84239 -0.905284 0.341304 121 96 99
-2.77665 -0.171994 1.1911 186 152 136
-2.84239 -0.905284 0.341304 121 96 99
-2.83598 -0.91389 0.257129 119 90 90
-2.83598 -0.91389 0.257129 119 90 90
0.725326 -0.0507087 1.45309 113 68 59
-2.81449 -0.963333 -0.00573124 98 79 81
1.53901 0.2312 0.531466 23 29 24
-2.81418 -0.963495 -0.00563839 98 79 81
-2.7901 -1.05084 -0.21813 179 159 148
0.602173 0.0519477 1.7238 94 96 56
-2.79198 -1.03798 -0.230378 161 143 126
-2.92253 -0.562774 1.30204 127 118 127
-2.91521 -0.602633 1.19077 166 149 134
-2.81985 -0.916254 0.0550605 91 76 77
-2.81416 -0.952669 0.000792695 120 97 91
-2.81678 -0.89111 -0.0152972 118 84 82
-2.81678 -0.89111 -0.0152972 118 84 82
1.45556 -1.0619 1.42487 85 81 99
-2.81144 -0.920923 -0.0440247 113 83 81
-2.80991 -0.921713 -0.0631445 164 146 132
1.23511 -0.446838 0.068404 163 136 116
-2.80115 -0.953351 -0.169366 128 99 95
-0.250141 0.450181 1.51898 88 90 89
-2.92276 -0.527678 1.29 116 115 119
-2.92241 -0.54822 1.27975 165 153 147
-1.78243 -0.0774258 1.23841 179 154 141
-2.92074 -0.496921 1.26891 177 162 157
-2.90995 -0.561494 1.12414 97 98 101
-2.89918 -0.578643 0.986126 94 82 87
-2.89799 -0.593667 0.965717 164 143 139
-2.92444 -0.471285 1.2209 55 61 71
-2.92414 -0.471325 1.22089 55 61 71
-2.91303 -0.456198 1.16043 169 153 148
1.54025 0.125637 0.0186322 53 78 45
-2.90939 -0.454983 1.10163 165 142 134
-2.88724 -0.501583 0.952712 177 169 157
0.901977 -0.032447 1.46025 60 37 32
-2.87528 -0.573222 0.690063 166 140 129
-2.27188 -0.573333 1.36859 184 158 142
-2.80314 -0.828371 -0.119616 94 66 70
-2.7876 -0.882558 -0.291907 150 134 127
-2.77729 -0.907965 -0.366866 140 117 115
-2.79392 -0.912474 -0.390945 45 40 37
-2.77946 -0.861869 -0.38082 132 111 116
-2.9128 -0.371449 1.24368 115 116 122
-2.89747 -0.467779 0.962941 180 152 149
-2.8666 -0.485117 0.945365 159 157 146
-2.88192 -0.479388 0.746254 175 157 148
-2.85945 -0.578888 0.492231 158 138 128
-2.86081 -0.568473 0.473568 83 85 83
-2.85913 -0.568981 0.474229 83 85 83
-2.82969 -0.647605 0.126524 115 85 81
-2.8011 -0.762034 -0.164096 98 75 81
-2.77752 -0.839398 -0.393639 70 54 55
2.70237 -2.81109 -1.30404 234 255 251
-2.91705 -0.301646 1.22387 251 255 250
-2.91217 -0.275382 1.20946 99 99 101
-2.91256 -0.338404 1.14332 162 132 128
1.12269 -0.496538 1.60815 49 39 42
-2.9121 -0.330839 1.1419 95 79 81
-2.90827 -0.361099 1.06776 168 138 128
-2.90827 -0.361099 1.06776 168 138 128
-2.89962 -0.346492 0.983131 102 86 82
-2.87907 -0.46404 0.786561 188 175 167
-2.87733 -0.448454 0.781785 186 173 167
-2.8039 -0.193135 1.19611 111 67 66
-2.88012 -0.454589 0.739326 107 97 101
-2.85893 -0.539478 0.474331 170 148 138
-2.8592 -0.48814 0.471737 85 72 76
-2.8592 -0.48814 0.471737 85 72 76
0.610016 0.950057 2.60348 16 21 16
-2.83558 -0.597 0.195887 101 83 89
-2.83558 -0.597 0.195887 101 83 89
-2.82811 -0.642341 0.115613 132 113 120
0.917196 0.316346 1.34804 174 162 157
-2.82039 -0.637235 0.0423079 159 140 135
0.46324 0.390046 1.27609 143 113 107
-2.8733 -0.188935 0.653623 99 71 70
-2.81926 -0.616449 0.0244988 89 66 66
-2.90019 -0.342265 0.995653 124 105 110
-2.79793 -0.71993 -0.202503 67 67 67
-2.77857 -0.783332 -0.401966 159 141 132
0.0382322 0.409344 1.24112 155 126 115
-2.77764 -0.745316 -0.420394 70 50 54
1.25103 -0.514351 -0.118085 220 193 177
-2.8733 -0.188885 0.653607 99 71 70
-2.90868 -0.264579 1.09223 164 137 127
-2.86163 -0.243848 0.512138 91 72 74
0.705999 0.521833 1.25935 158 135 119
-2.90532 -0.276628 1.04423 183 158 152
-2.90521 -0.276629 1.04429 183 158 152
-2.86257 -0.244139 0.519619 157 128 118
-0.103074 -1.3433 -0.198147 211 194 170
-2.77482 -0.700128 -0.434342 140 126 111
1.26292 -1.29519 0.239308 152 153 147
-2.84597 -0.318872 0.310981 64 54 57
-2.77639 -0.686119 -0.429001 162 145 132
-2.91787 -0.150123 1.16965 253 253 251
-2.91235 -0.156899 1.16828 111 101 106
-2.84123 -0.683604 0.269909 179 157 145
-2.84597 -0.318872 0.310981 64 54 57
-2.89618 -0.247927 0.927978 168 146 138
-0.211302 0.23095 1.28056 198 176 161
-2.8932 -0.25776 0.90622 168 144 140
-2.87834 -0.398447 0.715548 86 70 73
-2.87652 -0.297022 0.699995 179 152 137
-0.0241553 0.496478 4.64169 45 58 40
-2.82224 0.184467 1.0649 175 130 118
-2.87722 -0.310364 0.682493 165 140 125
0.127008 0.564979 1.77752 31 36 31
-2.87722 -0.310364 0.682493 165 140 125
-2.87131 -0.328903 0.629073 162 141 125
-2.86666 -0.353044 0.565779 104 81 84
-2.86666 -0.353044 0.565779 104 81 84
1.29063 0.33906 1.32983 110 94 95
-2.85509 -0.404891 0.428465 166 151 138
-2.85321 -0.40235 0.41192 147 131 118
-2.85749 -0.363447 0.451956 110 89 85
1.04019 0.191775 1.39664 101 57 54
-2.85351 -0.41335 0.403479 135 121 112
-2.85131 -0.416579 0.391957 143 132 120
1.01648 0.559518 1.27817 74 62 67
-2.85206 -0.396963 0.379827 102 86 91
1.38325 0.547185 1.25795 17 17 15
-2.84468 -0.42013 0.300134 160 146 137
-2.83622 -0.41466 0.267062 170 149 142
-2.81342 -0.558157 -0.0480317 169 150 144
-2.80895 -0.527116 -0.0991309 116 94 81
1.12484 0.282228 1.21599 107 89 85
-2.91352 -0.123896 1.15478 103 100 103
-2.92032 -0.092123 1.12123 152 137 131
1.08614 0.160025 1.41335 70 41 36
-2.90974 -0.12613 1.08591 159 130 124
-2.89208 -0.216606 0.883947 167 139 127
-2.88232 -0.193676 0.759909 164 132 122
1.16309 -0.0400033 0.778397 99 63 55
-2.88159 -0.225032 0.751086 167 140 124
-2.88065 -0.217996 0.750219 165 139 136
-2.85988 -0.293537 0.506183 164 136 123
-2.85819 -0.332004 0.466432 81 58 62
1.15348 0.21448 0.882027 137 121 109
-2.83579 -0.391349 0.202851 93 73 74
