ply
format ascii 1.0
comment Created by Open3D
element vertex 679
property double x
property double y
property double z
property double nx
property double ny
property double nz
property uchar red
property uchar green
property uchar blue
end_header
-0.0801966 0.0781929 0.0299575 -0.641893 -0.618675 0.450258 242 140 38
0.0201213 0.0524207 0.0456644 0.482075 -0.588926 0.639555 242 140 38
0.00803833 0.0442375 0.0454505 0.26734 -0.54335 0.789566 242 140 38
-0.0644389 0.0990787 0.0422887 -0.145587 0.0951012 0.984317 242 140 38
-0.0240506 0.184125 -0.0131603 -0.445341 0.838092 0.143079 242 140 38
-0.0181538 0.128134 0.0117864 -0.246897 0.968023 -0.0403368 242 140 38
-0.0740793 0.160725 -0.010123 -0.485519 0.753335 0.442186 242 140 38
0.0375343 0.0374981 0.0138042 0.438935 -0.889991 0.121762 242 140 38
0.0204024 0.0348817 0.0234638 0.0989976 -0.992855 0.0634516 242 140 38
-0.0388641 0.165756 -0.0126715 -0.512579 0.0619989 -0.855934 242 140 38
-0.0503918 0.139092 0.0195782 0.865916 0.390338 0.311248 242 140 38
-0.051296 0.0557294 0.0162183 -0.829726 -0.539787 -0.0207973 242 140 38
-0.0771622 0.17651 -0.0456123 -0.518019 0.739809 0.414154 242 140 38
-0.0829003 0.121898 0.0493302 -0.176305 -0.219053 0.94568 242 140 38
0.0388435 0.0606924 -0.007359 0.891739 -0.329826 -0.308488 242 140 38
-0.0838416 0.126146 0.0506161 -0.608666 -0.195517 0.766807 242 140 38
-0.0923049 0.126204 0.0365748 -0.960501 0.272695 -0.0414118 242 140 38
0.00391347 0.0371059 -0.0241904 0.180288 -0.244503 -0.937633 242 140 38
-0.078679 0.172214 -0.0410025 -0.839854 0.459424 0.23863 242 140 38
-0.0154197 0.0386371 -0.0044141 0.0103325 -0.998778 -0.0458373 242 140 38
0.0179651 0.079347 -0.0284779 0.501591 -0.0171211 -0.864763 242 140 38
-0.0243822 0.125008 0.000651916 -0.188415 0.955932 -0.223911 242 140 38
-0.0710469 0.162164 -0.0110365 0.072314 0.875064 0.467572 242 140 38
0.02826 0.0756617 0.0445771 0.49105 -0.267565 0.828151 242 140 38
0.0432465 0.0592032 -0.00453255 -0.0995928 0.474111 -0.874164 242 140 38
0.0259326 0.108807 -0.0137693 0.304971 0.534363 -0.787964 242 140 38
-0.020014 0.178907 -0.0229525 -0.624757 9.81433e-06 -0.780473 242 140 38
-0.0256177 0.0381336 -0.0291026 0.125112 0.013821 -0.991817 242 140 38
0.00179567 0.0557914 -0.0316232 0.123653 -0.414371 -0.895673 242 140 38
0.0236001 0.0450863 0.0399954 0.597061 0.154511 0.786937 242 140 38
0.0229682 0.0584533 -0.0257575 0.526627 0.034051 -0.843741 242 140 38
0.0227413 0.0947696 -0.0220614 0.325786 0.313383 -0.891598 242 140 38
-0.0559189 0.0335201 0.00297783 -0.009147 -0.999869 -0.0033951 242 140 38
-0.0725028 0.0981663 -0.0144023 -0.411856 0.291639 -0.863287 242 140 38
-0.0896198 0.113068 0.0354209 -0.626171 -0.770605 -0.0909212 242 140 38
-0.00286626 0.117195 -0.0158064 -0.194982 0.659969 -0.72373 242 140 38
0.0360499 0.103818 -0.00908498 0.767043 0.382361 -0.512516 242 140 38
-0.0383211 0.16924 0.00187711 0.323801 0.301459 0.86229 242 140 38
-0.0389062 0.107737 -0.0198551 -0.0379789 0.257151 -0.961994 242 140 38
-0.0488292 0.046498 0.0409765 0.101593 0.749927 0.65209 242 140 38
0.0190357 0.0362315 0.0394784 0.497533 -0.811032 0.290486 242 140 38
-0.0221449 0.0539896 -0.0301208 -0.513037 -0.371867 -0.773305 242 140 38
0.031913 0.068212 0.0407378 0.509325 -0.0310322 0.859429 242 140 38
-0.00707059 0.10388 0.0437654 -0.0770885 -0.0478598 0.992256 242 140 38
-0.0236198 0.126687 0.0125145 -0.271794 0.96153 0.0348491 242 140 38
-0.0915698 0.117326 0.029891 -0.887757 -0.391638 -0.231612 242 140 38
-0.0623955 0.137135 -0.00717394 0.294111 0.104894 -0.949681 242 140 38
-0.0718095 0.109049 0.0381356 0.249579 -0.816822 0.507539 242 140 38
-0.0267419 0.0718151 -0.0353408 -0.590464 -0.301436 -0.747216 242 140 38
0.0192872 0.0468173 -0.0220118 0.566581 -0.180578 -0.783419 242 140 38
-0.0870442 0.132055 0.00131882 -0.721112 0.188775 -0.666286 242 140 38
-0.0191504 0.116801 0.0365185 -0.220488 0.598964 0.769182 242 140 38
-0.0550466 0.142993 0.0295833 0.845186 -0.0850432 0.5213 242 140 38
-0.0427703 0.0869224 0.042693 0.338782 0.102762 0.92663 242 140 38
-0.0201729 0.163948 -0.00895342 0.18636 0.76818 0.612427 242 140 38
-0.0781011 0.134194 -0.00553738 -0.479419 0.1776 -0.858855 242 140 38
-0.0842245 0.10078 0.0285641 -0.760417 0.248582 0.599611 242 140 38
-0.00469804 0.0778755 0.0583434 -0.148485 0.220102 0.962226 242 140 38
0.0200386 0.0347624 0.0217305 -0.0112124 -0.981213 -0.0666376 242 140 38
-0.0465392 0.101896 -0.0214555 -0.00342271 0.178689 -0.983071 242 140 38
-0.0396344 0.153992 0.00490649 0.53592 -0.315295 0.780491 242 140 38
-0.0559398 0.0829015 -0.0214158 -0.132225 -0.0734183 -0.98808 242 140 38
0.0276475 0.122001 0.0143892 0.632224 0.77363 0.0419213 242 140 38
-0.0802216 0.0753039 -0.00252057 -0.834936 -0.512275 -0.183687 242 140 38
-0.0539366 0.136308 0.0305815 0.648583 0.495718 0.577274 242 140 38
-0.041932 0.0541283 0.039522 -0.124244 -0.124844 0.981517 242 140 38
-0.0438517 0.153752 -0.00738738 -0.243343 -0.464086 -0.851015 242 140 38
0.0464404 0.0753311 0.00724295 0.985536 0.12965 -0.102883 242 140 38
0.0602632 0.0618786 0.0178235 0.968497 -0.0841115 0.234127 242 140 38
-0.0618843 0.157612 -0.0205731 0.966881 0.18748 0.144277 242 140 38
-0.0740647 0.118534 0.0529216 -0.167793 -0.281794 0.941341 242 140 38
-0.0361714 0.161185 -0.0133582 -0.209538 -0.358032 -0.906868 242 140 38
0.0170108 0.0673239 0.050932 0.485973 -0.244774 0.838975 242 140 38
-0.0416575 0.0985805 -0.0216051 -0.0729682 0.216403 -0.972892 242 140 38
-0.0205684 0.165999 -0.0108444 0.284927 0.643957 0.708449 242 140 38
-0.0777875 0.150148 -0.00371118 -0.977243 0.117188 -0.162601 242 140 38
-0.0677731 0.0635867 -0.0012481 -0.548109 -0.763634 -0.3338 242 140 38
-0.0202536 0.0760187 0.0544093 -0.468196 -0.361496 0.803582 242 140 38
-0.025407 0.156149 -0.00660359 0.344901 -0.925458 -0.134038 242 140 38
0.00379149 0.0840286 0.0572441 0.164005 -0.0719411 0.981434 242 140 38
0.00149377 0.0353902 0.0457906 0.120669 -0.722151 0.619945 242 140 38
-0.0491703 0.0569254 0.0345863 -0.805407 0.00341346 0.59189 242 140 38
0.0087087 0.0422543 -0.0240679 -0.0242385 -0.380334 -0.924225 242 140 38
-0.00879096 0.0569748 0.0536521 -0.262824 -0.469988 0.839044 242 140 38
-0.0508725 0.11147 0.0367392 -0.0230262 0.601684 0.797257 242 140 38
-0.0850409 0.0785424 0.0139556 -0.767689 -0.6365 -0.0160443 242 140 38
-0.0345644 0.153288 -0.00697868 0.228285 -0.829591 -0.508065 242 140 38
-0.0804638 0.0888962 0.0342861 -0.776767 0.0302221 0.628946 242 140 38
-0.0230024 0.0548231 0.043229 -0.829724 -0.0665319 0.553306 242 140 38
-0.00926271 0.126028 0.0298654 -0.190417 0.817968 0.542756 242 140 38
-0.0485196 0.110275 0.0378329 -0.0886076 0.610023 0.784912 242 140 38
0.0368349 0.109997 0.00106495 0.791772 0.539639 -0.285829 242 140 38
-0.0304593 0.038671 -0.013685 0.0166493 -0.99897 -0.0095399 242 140 38
-0.0628942 0.17257 -0.0524775 0.852008 0.394706 0.34361 242 140 38
0.0355773 0.112148 0.0228458 0.830325 0.528005 0.178091 242 140 38
-0.0487428 0.0693626 -0.0146029 -0.290501 -0.317957 -0.901973 242 140 38
0.0371273 0.0824276 0.0367876 0.726301 0.0305763 0.686422 242 140 38
-0.0796345 0.115738 0.0485824 -0.551802 -0.485792 0.674258 242 140 38
-0.0160889 0.0386402 0.030405 0.00761031 -0.998185 0.0597425 242 140 38
-0.0538072 0.0594545 0.0243995 -0.521544 -0.753364 0.395344 242 140 38
0.0541337 0.0476641 0.00994131 0.670263 -0.730475 -0.128597 242 140 38
0.0141157 0.062582 -0.0296236 0.216923 -0.296168 -0.928696 242 140 38
-0.0464629 0.125099 0.0261456 0.895248 0.101494 0.43146 242 140 38
-0.0286013 0.0522065 0.0379024 -0.261996 0.856966 0.442853 242 140 38
-0.0116036 0.0484041 0.0487664 -0.0981788 -0.53839 0.799838 242 140 38
-0.069762 0.162449 -0.049454 -0.957486 -0.04837 -0.283992 242 140 38
0.0126688 0.0764946 0.0545882 0.152164 -0.020702 0.986366 242 140 38
-0.00822181 0.130391 0.0154736 -0.14973 0.988046 0.0349898 242 140 38
-0.0665 0.155553 -0.0522204 0.248724 -0.791534 -0.540367 242 140 38
-0.0396072 0.0742235 0.0422941 0.198906 -0.174939 0.962404 242 140 38
-0.0545714 0.0438358 -0.00805447 -0.341662 0.51062 -0.788733 242 140 38
-0.0150323 0.0382636 0.0170955 0.0455748 -0.998934 -0.00731932 242 140 38
0.0581647 0.0697833 0.0072055 0.757261 0.550317 -0.331477 242 140 38
-0.0332175 0.12467 0.0213293 0.259499 0.866082 0.426276 242 140 38
-0.0529298 0.0557989 -0.00727079 -0.653608 -0.223538 -0.719498 242 140 38
-0.0757432 0.0721771 -0.00558009 -0.5597 -0.695364 -0.439305 242 140 38
0.0378212 0.107293 -0.000454423 0.843727 0.40496 -0.349849 242 140 38
-0.0715496 0.155284 0.0277547 -0.0659989 0.964126 0.253986 242 140 38
-0.00760297 0.03386 -0.0230446 0.0635182 -0.972025 -0.223013 242 140 38
-0.0747734 0.134764 -0.00706401 -0.324874 0.202011 -0.923231 242 140 38
-0.0820149 0.143686 0.000664552 -0.843732 0.0555951 -0.532616 242 140 38
0.0331173 0.0823861 -0.0189621 0.406058 -0.00371296 -0.908358 242 140 38
0.0141062 0.0850273 -0.0302209 0.404708 -0.0411837 -0.91274 242 140 38
-0.0381491 0.120201 0.0297682 -0.045225 0.63734 0.767104 242 140 38
-0.048143 0.124313 0.0296947 0.851094 -0.0278152 0.51781 242 140 38
-0.0511079 0.115214 0.0338824 0.126063 0.516117 0.844246 242 140 38
-0.0453134 0.119055 0.0294164 -0.089098 0.741398 0.664131 242 140 38
-0.0182464 0.081506 -0.0391422 -0.0675227 -0.0807219 -0.99149 242 140 38
-0.0233961 0.0387345 0.0341523 0.0249885 -0.99661 0.0777709 242 140 38
0.00323725 0.128575 -0.00282452 -0.0535621 0.881014 -0.469606 242 140 38
-0.0280434 0.12011 0.0283262 -0.193047 0.859163 0.470957 242 140 38
0.0314621 0.118269 0.00615695 0.682274 0.724825 -0.0903244 242 140 38
-0.0767948 0.155038 -0.00814278 -0.981504 0.137057 0.125094 242 140 38
-0.0438038 0.0778011 -0.0192286 -0.0618169 -0.295007 -0.952526 242 140 38
-0.0374306 0.113326 0.0344894 0.195707 0.594211 0.778407 242 140 38
-0.046845 0.0922834 0.0436118 0.279352 0.0266645 0.956726 242 140 38
-0.0645587 0.178265 -0.0554003 0.693666 0.550774 0.460544 242 140 38
-0.0626116 0.164631 -0.0597627 0.346664 -0.435403 -0.78458 242 140 38
-0.0798571 0.148067 -0.000937691 -0.721795 0.292734 -0.625938 242 140 38
-0.0218298 0.0458497 0.0524973 0.0555927 0.539766 0.835949 242 140 38
-0.0688275 0.155889 0.025604 -0.0254443 0.980614 0.191457 242 140 38
-0.0580966 0.0392978 -0.0092135 -0.305388 0.334129 -0.890886 242 140 38
-0.0550342 0.124264 -0.00721747 -0.00615234 0.565555 -0.820066 242 140 38
0.0414762 0.1043 0.00999292 0.908117 0.4167 0.0375438 242 140 38
-0.0840044 0.103324 -0.00129354 -0.886635 0.26937 -0.372964 242 140 38
0.00897516 0.123878 0.0336178 0.143016 0.726987 0.66985 242 140 38
0.0304945 0.119485 0.0122205 0.694402 0.719383 0.0129149 242 140 38
0.0129688 0.0341854 -0.000700502 0.0193809 -0.998929 -0.0402512 242 140 38
0.00398111 0.0632693 0.0565394 0.196149 -0.0573754 0.976334 242 140 38
-0.0220788 0.0352482 0.0519075 0.0865229 -0.927639 0.340503 242 140 38
0.00886317 0.0704934 0.0554522 0.285469 -0.169491 0.942236 242 140 38
-0.0933686 0.123013 0.0268929 -0.940167 -0.0565402 0.334246 242 140 38
-0.0667306 0.0381537 -0.00637297 -0.51105 0.293399 -0.802325 242 140 38
-0.0309675 0.0955198 -0.0238078 -0.1632 0.243988 -0.955616 242 140 38
-0.0329749 0.125386 0.0198351 0.254064 0.887494 0.382738 242 140 38
-0.0662829 0.0621544 0.00163146 -0.360705 -0.901239 -0.230906 242 140 38
0.0168608 0.12045 0.0336683 0.193251 0.692438 0.692011 242 140 38
-0.0305778 0.0411456 0.0514202 -0.43888 0.302391 0.843863 242 140 38
0.0089203 0.10272 0.0460396 -0.234973 0.647478 0.722101 242 140 38
-0.0877585 0.105081 0.0148199 -0.909492 0.408457 0.0735867 242 140 38
-0.0662103 0.0638521 0.0256382 -0.386973 -0.813639 0.433349 242 140 38
-0.04372 0.0470301 0.0404365 0.0356721 0.491171 0.861389 242 140 38
-0.0368589 0.0757523 -0.0188237 -0.335864 -0.28621 -0.894925 242 140 38
0.0175377 0.128307 0.0131925 0.389644 0.920796 0.00834677 242 140 38
-0.0551327 0.140412 -0.0023702 0.68106 0.210999 -0.696702 242 140 38
-0.0714251 0.0818055 0.0401143 -0.494193 -0.28917 0.819503 242 140 38
-0.00926019 0.0682856 0.0554534 -0.259305 -0.154457 0.944441 242 140 38
-0.0127584 0.0606507 0.0541152 -0.393636 -0.349329 0.846938 242 140 38
0.0330743 0.0972623 0.0385799 0.631887 0.401316 0.662711 242 140 38
-0.0679499 0.170115 -0.0327489 0.510525 0.829428 0.224909 242 140 38
-0.0176902 0.183594 -0.0182326 0.814169 -0.0624258 0.574644 242 140 38
0.0182517 0.0691854 0.0506763 0.544677 -0.121368 0.826368 242 140 38
-0.0756633 0.160667 -0.0120582 -0.670269 0.620823 0.398682 242 140 38
-0.0884422 0.093319 0.0233496 -0.913898 -0.0250286 0.403979 242 140 38
-0.0856899 0.0955212 -0.000787298 -0.935117 0.0726972 -0.341599 242 140 38
-0.0297497 0.0712541 -0.031227 -0.816251 -0.346528 -0.460058 242 140 38
0.0245735 0.124406 0.0114519 0.57863 0.815054 -0.0127006 242 140 38
-0.0300695 0.0684473 0.0391801 0.16581 -0.226773 0.950849 242 140 38
-0.0861609 0.0801151 0.014865 -0.895613 -0.436658 0.0308217 242 140 38
0.0450063 0.086373 0.0219159 0.973852 0.0967191 0.202083 242 140 38
-0.0252832 0.158114 -0.00170413 0.519371 -0.512859 0.682656 242 140 38
-0.0349436 0.0350637 0.0453218 -0.288816 -0.88602 0.256962 242 140 38
0.0078821 0.0968738 0.0502232 0.283756 0.69276 0.659734 242 140 38
0.0402152 0.0401495 0.0213243 0.395009 -0.879861 0.262288 242 140 38
-0.00753568 0.0561436 -0.0333556 0.210659 -0.141383 -0.96417 242 140 38
0.000923948 0.045364 -0.0269091 0.0711249 -0.736183 -0.672507 242 140 38
-0.0128287 0.117534 -0.015151 -0.00407994 0.638704 -0.768364 242 140 38
-0.00538011 0.120886 -0.0124969 0.125323 0.64601 -0.752799 242 140 38
-0.0458581 0.112806 0.0354743 -0.000932174 0.680976 0.731826 242 140 38
-0.0444324 0.0350263 0.00763111 -0.113068 -0.656993 0.744663 242 140 38
-0.0512367 0.162019 -0.00364023 -0.713738 0.305839 -0.625726 242 140 38
0.0402114 0.0807607 0.0330433 0.847691 -0.0490121 0.527772 242 140 38
0.00552055 0.0929466 0.0540107 0.37154 0.411907 0.831354 242 140 38
0.0538486 0.0560669 0.0276971 0.692073 -0.263577 0.66904 242 140 38
-0.0440698 0.034309 0.0294695 0.0115956 -0.979949 0.198302 242 140 38
0.0188467 0.0360291 0.00584559 -0.470396 -0.676514 0.558306 242 140 38
0.0385426 0.0670676 -0.0117104 0.800716 -0.218025 -0.556373 242 140 38
0.00435105 0.123477 0.0340697 -0.0251537 0.620659 0.782916 242 140 38
-0.0169897 0.0967225 -0.0287263 -0.230529 0.914699 -0.331799 242 140 38
0.0237334 0.0434794 -0.0104988 0.604995 -0.750975 -0.262363 242 140 38
-0.0462149 0.130634 0.0223274 0.874983 0.354841 0.320638 242 140 38
-0.014691 0.0426637 -0.0270045 0.233891 -0.0893461 -0.947942 242 140 38
-0.0631179 0.15162 -0.00149454 0.654355 0.638794 -0.376355 242 140 38
-0.0845132 0.0830193 0.025442 -0.9714 -0.212228 0.0983332 242 140 38
0.053152 0.0734548 0.0113881 0.0671714 0.986275 -0.141863 242 140 38
-0.0715901 0.151793 -0.0434895 -0.839173 -0.279784 -0.363424 242 140 38
-0.0296968 0.114787 0.0340476 -0.0761915 0.636798 0.766037 242 140 38
-0.0642249 0.0436053 0.0326849 -0.838976 0.489482 -0.204059 242 140 38
-0.0748981 0.164959 -0.0188953 -0.535111 0.749899 0.381188 242 140 38
-0.0273688 0.172305 -0.00980546 0.664088 -0.0556563 0.741424 242 140 38
0.0244774 0.0429855 -0.00813863 0.611376 -0.690066 -0.380798 242 140 38
-0.0193688 0.0760853 -0.0390002 0.0534597 0.0260168 -0.997771 242 140 38
-0.00964613 0.1783 -0.0277115 0.905157 0.367985 0.184384 242 140 38
0.0273105 0.062091 -0.0220095 0.691127 0.109269 -0.712264 242 140 38
-0.037842 0.0943758 -0.023276 -0.160294 0.236439 -0.958276 242 140 38
-0.0693664 0.181301 -0.0567539 -0.061723 0.949179 -0.218953 242 140 38
-0.0155221 0.0715637 -0.0386589 0.0896415 -0.157567 -0.982356 242 140 38
-0.0786173 0.155492 0.0146221 -0.215492 0.973315 -0.0758728 242 140 38
-0.0936105 0.118877 0.0231644 -0.920285 -0.350781 0.169558 242 140 38
-0.0617676 0.159585 -0.0346794 0.993697 -0.0361106 -0.0846746 242 140 38
-0.0260329 0.126042 0.0117635 -0.206822 0.97797 0.0206884 242 140 38
-0.0353684 0.113496 0.0341752 -0.0403565 0.617726 0.785175 242 140 38
-0.0321485 0.0456246 -0.0271525 -0.172189 0.741978 -0.646518 242 140 38
-0.0825937 0.129651 0.0516579 -0.547839 0.164849 0.816867 242 140 38
0.0231123 0.0418267 -0.00819572 0.678942 -0.616575 -0.392926 242 140 38
-0.0413734 0.0537195 -0.0111443 0.106997 -0.102888 -0.988844 242 140 38
-0.0575546 0.0838179 -0.021203 -0.259904 -0.0626017 -0.961774 242 140 38
-0.0130071 0.047008 -0.0297388 -0.0172867 -0.558729 -0.825397 242 140 38
-0.069316 0.146956 -0.0268273 -0.116844 -0.954185 -0.245897 242 140 38
-0.07714 0.139319 -0.00564964 -0.413254 0.042576 -0.908321 242 140 38
0.0370364 0.0391978 0.0223606 0.340267 -0.888034 0.307717 242 140 38
-0.046723 0.0766314 -0.018169 -0.0704096 -0.45243 -0.887836 242 140 38
-0.00964117 0.0351951 0.0483069 0.0864165 -0.894562 0.434772 242 140 38
-0.0454142 0.0346392 0.0369692 -0.00410224 -0.99907 0.00624881 242 140 38
-0.0531087 0.107651 0.0394332 0.115531 0.510975 0.846017 242 140 38
-0.0378095 0.125246 -0.0061863 0.273907 0.849339 -0.449733 242 140 38
-0.0736614 0.144843 -0.0110577 -0.779514 -0.587013 -0.213295 242 140 38
0.000392049 0.079171 -0.0355959 0.306512 -0.014516 -0.947736 242 140 38
-0.0617061 0.156262 -0.0293162 0.989677 -0.134092 -0.0289988 242 140 38
0.0292252 0.0875 0.0436714 0.547087 -0.0183554 0.830049 242 140 38
0.0301705 0.0580712 -0.017246 0.658623 -0.417784 -0.623161 242 140 38
-0.0215073 0.178651 -0.0218017 -0.606732 0.0507208 -0.792302 242 140 38
-0.0667235 0.165116 -0.0212067 0.55317 0.770303 0.310111 242 140 38
0.029886 0.0714615 -0.0210648 0.755102 -0.15238 -0.63513 242 140 38
-0.0615878 0.106668 0.0396402 -0.0648964 0.526678 0.847359 242 140 38
-0.0109001 0.0383664 0.0109763 0.0328762 -0.999263 -0.0187731 242 140 38
-0.026852 0.075332 0.0452668 -0.770597 -0.378707 0.51229 242 140 38
0.05458 0.0494441 0.0210593 0.663535 -0.61876 0.418311 242 140 38
0.0117445 0.119359 -0.0141482 0.276883 0.626661 -0.728047 242 140 38
-0.0777507 0.0834896 0.0364559 -0.592241 -0.303764 0.745868 242 140 38
-0.0838231 0.0807443 0.0251889 -0.899794 -0.421411 0.0852226 242 140 38
-0.0514685 0.0553201 0.020159 -0.85736 -0.462558 -0.069539 242 140 38
-0.0439836 0.0704286 0.0419355 -0.167625 -0.295243 0.934888 242 140 38
-0.0525241 0.0490901 0.037383 -0.0187775 0.92857 0.326348 242 140 38
-0.00236965 0.0345511 -0.0171253 -0.0659892 -0.86127 0.496258 242 140 38
-0.084653 0.153846 0.0189885 -0.33446 0.941354 0.0274283 242 140 38
-0.0620098 0.0698828 0.0369895 -0.242644 -0.638848 0.729978 242 140 38
-0.0298664 0.0352379 0.0506958 -0.227622 -0.906288 0.340812 242 140 38
-0.000422035 0.128005 -0.00361738 0.0479772 0.86334 -0.501441 242 140 38
-0.0867721 0.0838034 0.0148723 -0.981432 -0.143542 0.0335111 242 140 38
-0.014915 0.128527 0.00569058 -0.244445 0.960106 -0.135622 242 140 38
-0.0788601 0.106521 0.0324646 -0.778465 -0.0306665 0.616972 242 140 38
-0.0627621 0.132219 -0.00795742 0.200418 0.162063 -0.964986 242 140 38
0.0075322 0.0769918 0.0561637 0.121563 0.185772 0.973921 242 140 38
0.0235245 0.0601072 -0.0253127 0.518668 0.102212 -0.848072 242 140 38
-0.00861333 0.0388421 -0.00557252 0.0355213 -0.998529 -0.0391279 242 140 38
-0.0658701 0.0608055 0.0058289 -0.24304 -0.961224 -0.127008 242 140 38
0.035429 0.0583356 0.0360854 0.753697 -0.358145 0.548749 242 140 38
-0.00286612 0.130987 0.00757873 -0.124991 0.988441 -0.0847525 242 140 38
0.0362821 0.0660939 0.0375688 0.743579 -0.0072576 0.667463 242 140 38
0.0112162 0.0880171 0.0544691 0.364194 0.144394 0.917656 242 140 38
-0.0508065 0.0805904 -0.0207122 0.112737 -0.438134 -0.888965 242 140 38
0.0458219 0.0653841 -0.000672874 -0.103993 0.586238 -0.801638 242 140 38
-0.0190608 0.183191 -0.016235 0.819466 -0.164085 0.547934 242 140 38
-0.0645311 0.086589 -0.0190499 -0.141901 0.0544663 -0.986247 242 140 38
0.0207187 0.126625 0.0169997 0.447301 0.892279 0.0572428 242 140 38
-0.0364631 0.124608 0.0233231 0.182887 0.876159 0.445703 242 140 38
-0.0890759 0.114376 0.0432111 -0.644625 -0.605923 0.460029 242 140 38
-0.0926383 0.126813 0.0289315 -0.95459 0.154259 0.253433 242 140 38
-0.0649798 0.155599 0.026135 0.0667209 0.973976 0.216161 242 140 38
-0.0910358 0.113716 0.0197109 -0.641112 -0.728927 0.223964 242 140 38
-0.0181429 0.111963 0.0399045 -0.151813 0.491131 0.857417 242 140 38
-0.0775495 0.159737 -0.0170025 -0.965225 0.196026 0.172261 242 140 38
0.0189241 0.0886576 0.0489064 0.214744 0.364093 0.901287 242 140 38
0.0593782 0.0568253 0.0179979 0.940049 -0.2975 0.164196 242 140 38
-0.0796114 0.150103 -0.000307428 -0.747762 0.324539 -0.577705 242 140 38
-0.030476 0.173706 -0.00506835 0.766512 -0.310253 0.561889 242 140 38
-0.0560097 0.0345994 0.0440152 0.0162313 -0.978439 0.204214 242 140 38
-0.0793958 0.143862 -0.00288038 -0.695217 0.241158 -0.674799 242 140 38
-0.0936171 0.129164 0.0187642 -0.96252 0.256647 -0.0807517 242 140 38
0.024037 0.0970982 0.0455355 0.486532 0.357145 0.796591 242 140 38
-0.0429403 0.157713 0.0049855 0.344536 0.456606 0.802906 242 140 38
0.0281945 0.058127 0.0418218 0.627784 -0.310744 0.711775 242 140 38
0.0385961 0.0644114 -0.0101136 0.821617 -0.238065 -0.517453 242 140 38
0.0432042 0.0672023 -0.000959002 0.865109 -0.00490907 -0.492876 242 140 38
-0.0609343 0.0465633 0.00836887 -0.299129 0.878766 0.370777 242 140 38
-0.0512825 0.0617618 0.0321785 -0.752666 -0.385567 0.515237 242 140 38
0.0355588 0.0366951 0.0141536 0.334718 -0.923513 0.17904 242 140 38
0.0232054 0.0764891 -0.0259464 0.423639 0.101105 -0.899433 242 140 38
-0.0249501 0.171306 -0.0195567 -0.348108 -0.195163 -0.91537 242 140 38
-0.00744204 0.0730179 -0.0369797 0.399833 -0.241181 -0.883059 242 140 38
-0.078784 0.16478 -0.0301315 -0.967336 0.00181869 0.0667923 242 140 38
0.031991 0.0373333 0.0216988 0.266965 -0.912505 0.309388 242 140 38
-0.0276128 0.114826 -0.0155428 0.0641968 0.556898 -0.824929 242 140 38
0.00343672 0.101987 -0.0220226 0.231976 0.235177 -0.943677 242 140 38
-0.0103196 0.0645654 -0.0360736 0.302693 -0.0633168 -0.94982 242 140 38
-0.0175722 0.0387777 -0.0148754 -0.0249767 -0.985992 0.118535 242 140 38
0.0352096 0.0710667 -0.0152343 0.748875 0.141462 -0.646568 242 140 38
0.01235 0.129532 0.0214816 0.306173 0.928425 0.209902 242 140 38
0.013654 0.0508391 0.0476941 0.566278 -0.487626 0.663823 242 140 38
0.0204673 0.0782427 0.0511245 0.552363 -0.0534634 0.83091 242 140 38
-0.0856821 0.133838 0.000581724 -0.705536 0.270518 -0.654755 242 140 38
-0.0648448 0.137768 0.0405355 0.879849 0.0277518 0.473784 242 140 38
-0.0492425 0.138952 0.00701003 0.970668 0.180365 -0.157358 242 140 38
-0.00135785 0.115134 -0.0179442 -0.287589 0.545243 -0.787292 242 140 38
-0.00857344 0.0772235 0.057625 -0.0536416 -0.12487 0.988308 242 140 38
-0.053577 0.0346418 0.0435153 0.0204356 -0.980369 0.168753 242 140 38
-0.0946465 0.124441 0.020103 -0.9946 0.0952078 -0.000521153 242 140 38
0.000847754 0.107779 -0.0207539 0.251368 0.306984 -0.917221 242 140 38
-0.020432 0.0354685 -0.0278912 0.219559 -0.459744 -0.8106 242 140 38
-0.0237703 0.0387186 -0.0153837 -0.0200065 -0.995971 0.0719875 242 140 38
0.0409364 0.0390757 0.0122767 0.454968 -0.889928 0.0278388 242 140 38
0.0145386 0.0349163 0.0394793 0.0964014 -0.991988 0.0727945 242 140 38
-0.0736126 0.156168 0.0194284 -0.0920164 0.995239 0.0256024 242 140 38
-0.0809868 0.0750477 0.020989 -0.771226 -0.6158 0.157396 242 140 38
-0.0561115 0.114016 0.0356211 0.292874 -0.0270664 0.943794 242 140 38
-0.0577924 0.0932445 -0.0211366 -0.513502 0.0430041 -0.854845 242 140 38
0.0395465 0.107147 0.0167051 0.883615 0.46064 0.080953 242 140 38
0.0169477 0.0905588 0.0500369 0.763292 0.200034 0.609747 242 140 38
-0.0423797 0.172041 -0.00435027 -0.562852 0.812354 0.076659 242 140 38
-0.0164792 0.0382341 0.0147585 0.018052 -0.999677 -0.00320447 242 140 38
-0.0154991 0.095509 -0.0321998 -0.164303 0.825906 -0.535461 242 140 38
-0.066648 0.159275 -0.0106756 0.652051 0.66741 0.359155 242 140 38
0.0417242 0.100575 -0.000297601 0.879308 0.334371 -0.338453 242 140 38
0.0279933 0.0640501 -0.0209132 0.655589 0.146185 -0.74071 242 140 38
-0.0542332 0.0615341 0.0282635 -0.380223 -0.8017 0.449135 242 140 38
-0.0398526 0.0592827 -0.0117168 0.155914 -0.244264 -0.956567 242 140 38
-0.0699707 0.158082 -0.0486698 -0.968835 0.076955 -0.234011 242 140 38
-0.036311 0.0813274 -0.021989 -0.567826 -0.353173 -0.717314 242 140 38
0.0338258 0.0391073 0.0246928 0.246104 -0.857597 0.450446 242 140 38
-0.00873941 0.116377 -0.0159614 -0.00213744 0.521987 -0.852285 242 140 38
0.0368069 0.0727569 0.0368998 0.821804 -0.156908 0.547181 242 140 38
-0.0876557 0.12725 6.85159e-05 -0.858183 0.19438 -0.468711 242 140 38
-0.0165015 0.0387517 -0.00827824 0.0508687 -0.99805 -0.0356644 242 140 38
-0.0598572 0.0339286 0.0201038 -0.102144 -0.99397 0.0325879 242 140 38
-0.018955 0.0722746 0.0540879 -0.510814 -0.219974 0.830553 242 140 38
-0.0133622 0.0569234 -0.034471 0.133203 -0.394917 -0.907157 242 140 38
-0.0833949 0.0999007 -0.00429523 -0.787024 0.168417 -0.588539 242 140 38
0.0437617 0.0865653 0.0257472 0.918555 0.144134 0.367703 242 140 38
0.0120376 0.0472831 -0.0259802 0.21294 -0.537449 -0.808867 242 140 38
0.0362844 0.0540706 0.0319124 0.540641 -0.233296 0.801629 242 140 38
0.0375129 0.0629246 0.0352917 0.804778 -0.180586 0.565073 242 140 38
0.00772149 0.0341831 -0.0178367 0.0380365 -0.998424 0.0028738 242 140 38
-0.0451469 0.0595488 -0.0122941 -0.13209 -0.305506 -0.941545 242 140 38
0.0324665 0.117441 0.00961762 0.733712 0.679157 -0.0115797 242 140 38
0.0460166 0.0416283 0.014327 0.470795 -0.878176 0.0786325 242 140 38
-0.027102 0.0969346 0.0436537 0.133129 0.257961 0.943938 242 140 38
0.0429932 0.0888672 -0.00544937 0.947721 0.107369 -0.299066 242 140 38
0.0499407 0.064277 -0.00196298 0.0226785 0.56248 -0.82328 242 140 38
-0.0420363 0.0336012 0.00520158 -0.0221785 -0.99659 0.0730207 242 140 38
-0.0141596 0.184919 -0.026162 0.29164 0.734838 -0.284801 242 140 38
-0.0366404 0.126314 0.0195782 0.143117 0.928618 0.334213 242 140 38
-0.0777589 0.116617 -0.00561283 -0.433502 -0.354698 -0.827059 242 140 38
-0.0588898 0.0908199 0.0452674 0.00128438 -0.150225 0.982317 242 140 38
-0.0128302 0.125446 -0.00532204 -0.350205 0.797703 -0.488281 242 140 38
-0.0591749 0.0735677 0.0411491 -0.165965 -0.557689 0.812143 242 140 38
0.0190711 0.036496 -0.0101212 0.856691 -0.498652 -0.130787 242 140 38
-0.0213201 0.11862 -0.012413 0.0635889 0.698222 -0.712597 242 140 38
0.038684 0.0433001 0.0287234 0.214183 -0.726601 0.647817 242 140 38
0.0157859 0.0692084 0.0521241 0.45817 -0.187665 0.868258 242 140 38
-0.0179197 0.089271 0.0559003 -0.28518 0.297592 0.910531 242 140 38
-0.0121675 0.0355089 -0.0177835 -0.150503 -0.609499 0.77704 242 140 38
-0.036633 0.124141 -0.00722691 0.325352 0.707669 -0.626561 242 140 38
-0.0737984 0.175116 -0.0414236 0.0478739 0.900471 0.427178 242 140 38
-0.0250539 0.0387758 0.0341475 0.0419087 -0.993146 0.107092 242 140 38
-0.0185993 0.160948 -0.00596378 0.561403 0.172895 0.757106 242 140 38
-0.0502245 0.0539866 0.016043 -0.914102 -0.346535 0.064914 242 140 38
-0.0653922 0.17079 -0.0429445 0.736482 0.625431 0.256958 242 140 38
-0.0714646 0.169922 -0.0275141 0.129894 0.930796 0.339468 242 140 38
-0.0273542 0.0347069 0.0433441 -0.0281237 -0.99822 0.0524582 242 140 38
0.039779 0.042686 0.0272853 0.363138 -0.774747 0.516259 242 140 38
-0.0491638 0.0776232 0.0438086 0.081468 -0.23219 0.963251 242 140 38
-0.0303847 0.0650258 -0.0254861 -0.908051 -0.359914 -0.21391 242 140 38
-0.0851044 0.0789975 0.00645631 -0.890649 -0.387654 -0.233834 242 140 38
0.0286636 0.0359121 0.0028592 0.245868 -0.920877 -0.301837 242 140 38
0.00336547 0.0346485 0.0425091 0.0202895 -0.997665 0.0587469 242 140 38
-0.0241534 0.0867793 0.0533237 -0.700504 0.289406 0.651849 242 140 38
-0.00994305 0.169811 -0.0199042 0.766347 0.398855 0.501506 242 140 38
-0.0632241 0.0686161 -0.0113974 -0.406686 -0.728785 -0.548356 242 140 38
0.0455673 0.0761588 0.0213002 0.955756 -0.0634069 0.285437 242 140 38
-0.0730182 0.11998 0.0535285 -0.0848843 -0.146157 0.981605 242 140 38
-0.00267217 0.0585585 0.054071 -0.186747 -0.220489 0.933749 242 140 38
0.0147156 0.0844443 0.0521729 0.38878 0.163953 0.901825 242 140 38
-0.00437781 0.0627978 0.0560192 0.0295159 -0.24892 0.959287 242 140 38
0.00454462 0.110305 0.0419208 0.291539 0.133868 0.944345 242 140 38
-0.0838706 0.115197 -0.000905114 -0.63905 -0.387083 -0.659628 242 140 38
-0.0398798 0.15404 -0.00846192 -0.100451 -0.581439 -0.806503 242 140 38
-0.0629967 0.170135 -0.049107 0.888804 0.372846 0.258626 242 140 38
0.0311005 0.0995858 -0.0152051 0.565237 0.161379 -0.808791 242 140 38
-0.0323728 0.175595 -0.00296908 0.236159 0.461685 0.824208 242 140 38
-0.0527413 0.1632 8.38127e-05 -0.701905 0.686939 -0.164408 242 140 38
0.0344163 0.111446 -0.00312136 0.788644 0.531935 -0.307493 242 140 38
-0.0256031 0.170083 -0.010913 0.548592 0.219937 0.804451 242 140 38
-0.0717799 0.0378648 0.00236887 -0.91113 0.405406 -0.0608636 242 140 38
-0.0705245 0.0879527 0.0418817 -0.371898 -0.0195682 0.924816 242 140 38
-0.0529273 0.0460581 0.0217479 -0.727222 0.534292 -0.423828 242 140 38
0.0204948 0.0400181 -0.0135475 0.856379 -0.498228 -0.135339 242 140 38
-0.0563293 0.143147 -0.00198341 0.308446 0.27172 -0.909358 242 140 38
0.0296582 0.114853 -0.00590829 0.515264 0.673764 -0.529548 242 140 38
-0.0513788 0.033536 0.0048274 -0.0232379 -0.999387 0.00499782 242 140 38
-0.0493358 0.147811 -0.00284493 -0.0863623 -0.542741 -0.832358 242 140 38
-0.0776035 0.155446 0.0120946 -0.202984 0.973956 -0.0988911 242 140 38
-0.0864513 0.0834088 0.0182659 -0.964652 -0.202294 0.156001 242 140 38
-0.0874118 0.145718 0.00856483 -0.691589 -0.172979 -0.6957 242 140 38
0.00959291 0.0378848 0.0451107 0.193966 -0.0267788 0.97996 242 140 38
0.0193496 0.0806858 -0.027549 0.494658 0.019193 -0.86858 242 140 38
-0.0105723 0.0365084 -0.0169148 -0.153153 -0.505582 0.847954 242 140 38
-0.0577849 0.155416 0.016302 0.240522 0.969101 0.045963 242 140 38
-0.0641133 0.166734 -0.0341148 0.812598 0.563267 0.148444 242 140 38
0.00180955 0.0381518 -0.000894991 -0.502961 -0.759669 -0.379748 242 140 38
0.00207497 0.089637 -0.0338871 0.306482 0.18067 -0.93424 242 140 38
0.0282591 0.079905 0.045187 0.622094 0.0458496 0.779609 242 140 38
-0.00690168 0.0897715 -0.0361659 0.177507 0.256541 -0.949654 242 140 38
-0.0464434 0.0735081 -0.0169764 -0.324649 -0.31277 -0.887364 242 140 38
-0.012635 0.036139 0.0504234 0.251477 -0.476545 0.830913 242 140 38
0.0321598 0.103987 0.0352836 0.610033 0.371338 0.69876 242 140 38
-0.0651444 0.141562 0.0407273 0.818551 0.120775 0.560315 242 140 38
-0.0724051 0.145581 -0.0183489 -0.757331 -0.60619 -0.241689 242 140 38
-0.0747426 0.155996 0.0217619 -0.114909 0.990032 0.0744002 242 140 38
0.0434094 0.0594819 0.0310436 -0.242535 0.441971 0.862656 242 140 38
-0.0560558 0.107666 0.0394659 -0.0463198 0.585037 0.809237 242 140 38
0.00712588 0.0343322 0.0199836 0.123845 -0.99171 0.0199384 242 140 38
-0.022713 0.184986 -0.0139487 -0.373868 0.844405 0.202404 242 140 38
0.0101871 0.114923 -0.0170687 0.327195 0.522412 -0.786503 242 140 38
-0.0862001 0.128511 0.0486527 -0.784335 0.0245277 0.618206 242 140 38
-0.0628381 0.128271 -0.00830413 0.243375 0.0930048 -0.965418 242 140 38
-0.0247565 0.113192 -0.0169006 -0.211975 0.605409 -0.765074 242 140 38
0.00325038 0.0472022 -0.0285874 0.237342 -0.604411 -0.745215 242 140 38
-0.0688378 0.0613496 0.0151659 -0.496408 -0.860001 0.11642 242 140 38
-0.0674552 0.0445573 0.00342449 -0.57256 0.808712 -0.098574 242 140 38
-0.0784334 0.112514 0.0467914 -0.332192 -0.604187 0.716928 242 140 38
0.0598484 0.0620457 0.0195484 0.958285 -0.0628144 0.277368 242 140 38
-0.0388363 0.156824 0.00523322 0.318572 0.173693 0.879749 242 140 38
-0.0139191 0.0386468 -0.00313003 0.0519293 -0.997187 -0.0531896 242 140 38
-0.0436504 0.115956 0.0329198 -0.101604 0.664543 0.739675 242 140 38
-0.0266191 0.105361 -0.0226783 -0.107824 0.419822 -0.899377 242 140 38
-0.0369941 0.0356687 0.0123441 -0.558959 -0.660182 0.501227 242 140 38
0.012356 0.0853183 -0.0307395 0.242428 -0.0552264 -0.967667 242 140 38
-0.00214502 0.127679 -0.00458006 0.104151 0.878345 -0.466312 242 140 38
0.015998 0.0936356 0.0495248 0.638699 0.448021 0.621925 242 140 38
-0.0305129 0.112317 0.035741 -0.0734755 0.594112 0.800818 242 140 38
-0.0695518 0.152164 -0.0465106 -0.148356 -0.876339 -0.43807 242 140 38
-0.0768017 0.0686238 0.0173336 -0.568872 -0.807746 0.152338 242 140 38
0.046407 0.0737694 0.0182784 0.901213 0.276281 0.282648 242 140 38
-0.0437795 0.0962466 0.0426945 0.258577 0.0503875 0.964477 242 140 38
0.0480714 0.0594801 0.0311884 0.261012 0.19482 0.939959 242 140 38
0.0175245 0.0357306 0.0404609 0.408724 -0.845584 0.319182 242 140 38
-0.0337343 0.0486794 0.0406404 -0.59062 0.707523 0.386688 242 140 38
-0.0800345 0.105635 -0.0054929 -0.6822 0.323286 -0.655498 242 140 38
-0.0475149 0.144622 0.00381726 0.509037 -0.846509 0.0703504 242 140 38
-0.085507 0.116106 0.0476781 -0.334909 -0.422963 0.840452 242 140 38
-0.0150549 0.0412219 0.0514917 0.340897 0.0247998 0.938509 242 140 38
-0.0585064 0.103996 -0.0185724 -0.0848275 0.180718 -0.979269 242 140 38
-0.0430103 0.0344365 -0.0270074 -0.695758 -0.357545 -0.568622 242 140 38
-0.056844 0.0770269 -0.0192807 -0.106794 -0.347277 -0.931081 242 140 38
0.0225014 0.100572 -0.0205973 0.404206 0.417089 -0.813155 242 140 38
-0.0933153 0.125673 0.0124712 -0.967369 0.112685 -0.225546 242 140 38
0.0278121 0.0532513 -0.0198146 0.699419 -0.0230209 -0.707751 242 140 38
-0.0392116 0.0350993 -0.0118951 0.657135 -0.708671 0.2519 242 140 38
-0.0745295 0.137146 -0.00664266 -0.32514 0.0973892 -0.939704 242 140 38
-0.0662951 0.0790863 -0.0175372 -0.315513 -0.231258 -0.92021 242 140 38
-0.0485166 0.108961 -0.0188034 0.106478 0.317034 -0.939758 242 140 38
-0.0510745 0.0338694 0.0260843 -0.118608 -0.967202 0.223227 242 140 38
-0.0449155 0.169306 6.05828e-05 -0.42083 0.818693 0.38281 242 140 38
-0.0294107 0.048423 0.0452411 -0.542673 0.705094 0.454975 242 140 38
-0.0339762 0.0384045 -0.0137132 0.217882 -0.958694 0.158239 242 140 38
0.0263484 0.0452413 -0.0103512 0.607007 -0.76467 -0.210377 242 140 38
-0.0760873 0.150268 -0.0145724 -0.984242 0.0744962 -0.00779982 242 140 38
0.0277986 0.110112 -0.0119556 0.406736 0.535627 -0.738459 242 140 38
-0.0663234 0.156004 0.0246445 0.074024 0.984893 0.153267 242 140 38
-0.0539617 0.095949 -0.0217789 -0.191711 -0.00858497 -0.979613 242 140 38
-0.0361468 0.0913898 -0.0239054 -0.135311 0.0870913 -0.986886 242 140 38
-0.0624398 0.158336 -0.0190406 0.899073 0.357547 0.248723 242 140 38
-0.033287 0.0753067 -0.0268499 -0.880669 -0.284564 -0.36369 242 140 38
-0.00609148 0.0339908 -0.0192368 -0.032285 -0.984695 0.167382 242 140 38
-0.00790119 0.0597134 -0.0344888 -0.0350726 -0.391874 -0.91678 242 140 38
-0.055581 0.0653283 0.0343968 -0.183046 -0.791452 0.582489 242 140 38
-0.0142486 0.0909033 -0.0368096 -0.00878275 0.489239 -0.870274 242 140 38
-0.0326933 0.125915 0.0179485 0.274888 0.927376 0.250723 242 140 38
-0.021138 0.0767641 -0.0389849 -0.13401 -0.00719916 -0.987754 242 140 38
-0.0735417 0.166272 -0.020035 -0.358486 0.835737 0.412526 242 140 38
-0.0597825 0.152165 0.0336992 0.375095 0.690021 0.609258 242 140 38
0.0213763 0.0436708 -0.0182559 0.899062 -0.294823 -0.30907 242 140 38
-0.0690724 0.135109 -0.00830425 -0.0751533 0.0772658 -0.994082 242 140 38
-0.0334734 0.038451 -0.00819975 0.00467995 -0.999464 -0.0243731 242 140 38
-0.0209052 0.0779063 0.0551101 -0.396758 -0.436512 0.80667 242 140 38
-0.00443257 0.0463366 -0.029283 0.140816 -0.604909 -0.774973 242 140 38
-0.0616744 0.151073 -0.000721967 0.429672 0.510073 -0.734411 242 140 38
-0.0773574 0.0900684 -0.0123447 -0.753111 -0.0181704 -0.655382 242 140 38
0.0390719 0.0641367 0.0333886 0.829283 -0.180378 0.524941 242 140 38
-0.0669857 0.0769324 -0.0166474 -0.431696 -0.370378 -0.821237 242 140 38
-0.0612612 0.0684616 -0.012246 -0.244159 -0.77401 -0.57403 242 140 38
0.0443767 0.0767321 -0.00177323 0.926146 -0.0862924 -0.365741 242 140 38
0.0208803 0.11906 -0.00914076 0.363572 0.711487 -0.600727 242 140 38
0.0354277 0.0958931 0.0368971 0.739834 0.340666 0.579709 242 140 38
-0.0387256 0.174073 -0.00906853 -0.617805 0.6604 -0.422785 242 140 38
-0.0593906 0.108389 0.0387 -0.067791 0.565223 0.822096 242 140 38
-0.0532187 0.0334974 0.00750805 0.0550681 -0.997354 0.0198888 242 140 38
-0.0651032 0.0863444 0.0445359 -0.19516 -0.146028 0.967635 242 140 38
0.0293982 0.104339 0.0371233 0.55687 0.324808 0.759001 242 140 38
0.00992232 0.0540542 0.0522763 0.205791 -0.300423 0.91763 242 140 38
-0.0346039 0.0829346 0.0426124 0.515096 -0.0951481 0.850912 242 140 38
0.0238867 0.0904101 -0.0233298 0.337104 0.310138 -0.88869 242 140 38
-0.0452891 0.0906794 0.0431932 0.320471 0.103113 0.934909 242 140 38
-0.012924 0.0347445 0.0451491 -0.000506285 -0.997932 -0.0418609 242 140 38
-0.0183253 0.106756 0.0422773 0.0549334 0.348967 0.933593 242 140 38
0.0543683 0.0479507 0.0171552 0.694152 -0.715686 0.0715375 242 140 38
-0.0337358 0.0587886 -0.0118418 -0.364851 -0.404929 -0.836777 242 140 38
0.0146441 0.120995 0.034076 0.35825 0.600958 0.711469 242 140 38
0.028472 0.105685 -0.0143827 0.394407 0.523331 -0.755014 242 140 38
0.00327062 0.0977912 -0.0264919 0.206444 0.89723 -0.388846 242 140 38
-0.0580184 0.0336889 0.0162938 -0.0868276 -0.995561 0.0200924 242 140 38
0.0572683 0.0528425 0.0207876 0.82177 -0.452597 0.341058 242 140 38
-0.0753025 0.0960591 -0.0134837 -0.543732 0.207367 -0.811633 242 140 38
-0.0671331 0.0334399 0.000338574 -0.046436 -0.998713 0.00477889 242 140 38
-0.0129036 0.0708658 -0.0382016 0.101204 -0.135079 -0.984689 242 140 38
-0.0265699 0.0335901 -0.0234927 0.0134365 -0.996556 0.0720919 242 140 38
-0.0261275 0.0368432 -0.0187912 0.0189621 -0.5348 0.844657 242 140 38
0.0434721 0.0709832 -0.00132953 0.94211 -0.142721 -0.299769 242 140 38
-0.0253155 0.102312 -0.0236815 -0.0699212 0.157052 -0.983231 242 140 38
0.00101059 0.0490905 -0.0301905 0.206981 -0.353141 -0.899677 242 140 38
0.0111373 0.1084 -0.0193137 0.244983 0.154278 -0.956719 242 140 38
-0.0343401 0.0847579 0.0426684 0.446676 -0.0554001 0.886664 242 140 38
-0.0650562 0.0419405 0.0333174 -0.918062 0.322793 -0.21381 242 140 38
-0.0113527 0.0659187 -0.0364691 0.268522 -0.0305984 -0.961354 242 140 38
0.0464211 0.0773485 0.00897953 0.997657 0.0468011 -0.0460876 242 140 38
-0.0333983 0.0623575 0.0393118 0.521234 -0.196305 0.830262 242 140 38
0.038415 0.109122 0.00548389 0.834149 0.543861 -0.0908645 242 140 38
0.0013767 0.0389053 0.0265414 -0.0153825 -0.993431 0.102217 242 140 38
-0.0923597 0.131489 0.0238928 -0.87916 0.451068 0.143444 242 140 38
0.00490724 0.0962793 0.0523388 0.270639 0.613499 0.738312 242 140 38
-0.0853452 0.142098 0.00532876 -0.821676 0.450705 -0.334055 242 140 38
-0.0463139 0.129171 0.0235859 0.919491 0.226578 0.32078 242 140 38
0.0339177 0.0864739 0.0411797 0.745187 -0.113874 0.653159 242 140 38
-0.0102928 0.0991842 0.0492676 -0.230144 0.882008 0.407973 242 140 38
-0.0292886 0.116279 0.0327059 -0.05712 0.701749 0.709659 242 140 38
-0.00373042 0.0390267 0.0312605 0.0187138 -0.99654 0.079355 242 140 38
-0.0384984 0.0810967 0.0433742 -0.141749 -0.214291 0.966216 242 140 38
-0.0529453 0.115474 0.0341611 0.331645 0.244479 0.906898 242 140 38
-0.0280872 0.110484 -0.0185243 -0.148142 0.578512 -0.794693 242 140 38
0.0322432 0.0656482 -0.0182947 0.596844 -0.0254388 -0.789693 242 140 38
-0.0652132 0.177805 -0.0607044 -0.187968 0.197117 -0.955497 242 140 38
-0.0508391 0.0531609 0.0197225 -0.944126 -0.142558 -0.285168 242 140 38
-0.0906341 0.118986 0.00561695 -0.896991 -0.032214 -0.438149 242 140 38
-0.013763 0.125946 0.0277733 -0.332803 0.8417 0.425045 242 140 38
-0.0667247 0.0435075 0.00938796 -0.504506 0.660886 0.552294 242 140 38
-0.0217811 0.0967671 -0.0251541 -0.195041 0.727003 -0.625246 242 140 38
0.00361793 0.108708 0.0422448 0.25398 -0.00128316 0.966589 242 140 38
-0.0203293 0.176996 -0.0156331 0.618128 0.0366094 0.784691 242 140 38
-0.0415262 0.125644 -0.0073373 0.150867 0.872763 -0.460273 242 140 38
-0.0771279 0.163513 -0.0329722 -0.561439 -0.725216 -0.397904 242 140 38
-0.0881084 0.115183 0.00397712 -0.647491 -0.482076 -0.588422 242 140 38
0.0402895 0.0648336 -0.0071739 0.897139 -0.264344 -0.350922 242 140 38
-0.0226039 0.16677 -0.0106498 0.321074 0.588224 0.7419 242 140 38
-0.0676204 0.132364 0.0465701 0.759626 0.271372 0.589478 242 140 38
-0.0453871 0.0982783 -0.0216848 0.0904768 0.104712 -0.989426 242 140 38
0.00306807 0.045175 -0.0263685 0.143219 -0.714961 -0.682852 242 140 38
0.0592651 0.0648122 0.0212346 0.896524 0.10335 0.428284 242 140 38
-0.053408 0.139248 -0.000842916 0.703302 0.128737 -0.695451 242 140 38
-0.0598714 0.105687 0.0404062 -0.101564 0.521386 0.847113 242 140 38
-0.0188186 0.057324 0.0492165 -0.72876 -0.188714 0.65632 242 140 38
-0.0870578 0.111777 0.0408028 -0.391226 -0.881745 0.254143 242 140 38
-0.0712655 0.156374 0.0204261 -0.0127634 0.998447 0.0303586 242 140 38
-0.0139975 0.10912 0.0423951 -0.201765 0.337073 0.917311 242 140 38
-0.0927666 0.11776 0.0353864 -0.957064 -0.276383 -0.0499876 242 140 38
-0.0478094 0.095668 -0.0220638 0.0577528 -0.0502356 -0.996921 242 140 38
-0.0735016 0.1047 0.0372555 -0.353336 0.0591771 0.930188 242 140 38
-0.0190164 0.0931836 0.0533354 -0.413347 0.559164 0.716888 242 140 38
-0.0858538 0.0989321 0.0270058 -0.81122 0.195837 0.550584 242 140 38
-0.0577193 0.0333671 -0.0020185 -0.00367718 -0.99959 0.0112931 242 140 38
-0.0157752 0.0382849 0.00784466 0.0428928 -0.998664 -0.0270194 242 140 38
0.0377772 0.101702 0.0298132 0.787214 0.332585 0.518901 242 140 38
-0.0140088 0.0964173 -0.0311162 -0.141735 0.883229 -0.442395 242 140 38
-0.0785106 0.138485 0.0489698 -0.174665 0.557413 0.811028 242 140 38
-0.0686345 0.15637 0.0193972 0.0082073 0.99946 -0.00822112 242 140 38
-0.0646142 0.161437 -0.0181028 0.755939 0.555809 0.34543 242 140 38
-0.017791 0.159916 -0.00742282 0.661646 -0.568076 0.404959 242 140 38
0.00724026 0.10507 0.0427449 -0.206218 0.675587 0.701809 242 140 38
-0.0268157 0.0993547 0.043826 -0.354602 0.0309613 0.92839 242 140 38
-0.0214288 0.0381569 0.0126275 0.0266431 -0.999509 -0.0139392 242 140 38
0.0298961 0.0473025 -0.00742135 0.527452 -0.525273 -0.642742 242 140 38
-0.0335922 0.0470125 -0.024479 -0.247022 0.88077 -0.4006 242 140 38
-0.0748595 0.12898 -0.00808817 -0.267969 0.137967 -0.951349 242 140 38
-0.0218079 0.0339842 -0.0210132 -0.0344069 -0.902783 0.385581 242 140 38
-0.0606308 0.0826299 -0.0197422 -0.378739 -0.116316 -0.917202 242 140 38
0.00203041 0.0796777 -0.0349604 0.326822 0.0870759 -0.940734 242 140 38
0.0588267 0.0569478 0.0206816 0.919266 -0.240167 0.30513 242 140 38
-0.0555753 0.103989 0.0415428 0.122793 0.410322 0.903315 242 140 38
0.0235248 0.0618084 0.0459813 0.686675 -0.00796992 0.725502 242 140 38
-0.0089566 0.0385137 0.00548085 0.0385543 -0.998681 -0.0324234 242 140 38
0.0187608 0.123537 0.0290044 0.204498 0.845652 0.490544 242 140 38
-0.0502332 0.0551134 -0.0091557 -0.54535 -0.252414 -0.798334 242 140 38
0.0428247 0.091744 0.0259792 0.908188 0.0916312 0.4082 242 140 38
0.0104137 0.0684079 -0.0310307 0.171152 -0.272446 -0.944036 242 140 38
-0.0708611 0.083375 0.0409182 -0.487749 -0.234426 0.840838 242 140 38
-0.0673965 0.172681 -0.0576273 -0.812747 -0.196802 -0.54745 242 140 38
-0.0100715 0.175867 -0.024603 0.81972 0.353329 0.448087 242 140 38
-0.0402592 0.0352401 -0.0287098 -0.481126 0.0898571 -0.841028 242 140 38
-0.0659557 0.115793 -0.0100511 -0.371738 0.46219 -0.802648 242 140 38
0.0110498 0.115252 0.0381404 0.271519 0.406717 0.870614 242 140 38
0.0319642 0.0516979 0.0352976 0.708982 -0.433353 0.556193 242 140 38
0.00977449 0.0624539 -0.0309278 0.264295 -0.384454 -0.883123 242 140 38
0.023726 0.0911732 0.0475235 0.424741 0.21103 0.879633 242 140 38
-0.0749309 0.171666 -0.0340927 -0.34429 0.880332 0.325473 242 140 38
-0.0142835 0.127526 0.000647964 -0.268346 0.92022 -0.284331 242 140 38
-0.0560833 0.0356473 0.0461287 -0.0421328 -0.746047 0.649444 242 140 38
-0.052829 0.151716 0.0171337 0.866029 0.468886 0.159599 242 140 38
-0.0707168 0.128122 0.0515629 0.373623 0.420279 0.825371 242 140 38
-0.0345531 0.0402494 -0.0298306 -0.232664 0.19217 -0.952726 242 140 38
-0.0630887 0.118441 0.0444374 0.888981 -0.300308 0.345295 242 140 38
-0.074374 0.155853 -0.000288285 -0.46802 0.841773 0.24935 242 140 38
-0.0900778 0.132155 0.0395172 -0.957063 0.226212 0.172428 242 140 38
-0.00470268 0.0385544 0.00732869 -0.0322165 -0.998306 -0.0398888 242 140 38
-0.0360791 0.0345106 0.0327928 0.151106 -0.982106 0.0196 242 140 38
-0.00735028 0.10072 0.0461302 0.0338562 0.947469 0.310089 242 140 38
-0.0158839 0.175584 -0.0254637 -0.580665 -0.280041 -0.764039 242 140 38
-0.0881703 0.144537 0.00989202 -0.755204 -0.341811 -0.555074 242 140 38
-0.0700651 0.155558 0.00453554 0.13133 0.98929 0.0320873 242 140 38
-0.0448061 0.111849 -0.0170553 -0.00293089 0.512478 -0.857032 242 140 38
0.015124 0.048671 0.045051 0.466719 -0.530616 0.707424 242 140 38
-0.0476389 0.0787755 -0.0193448 0.0290514 -0.458891 -0.885724 242 140 38
-0.0729595 0.172025 -0.0340619 0.0105559 0.948653 0.31363 242 140 38
-0.0507419 0.164212 -0.00280176 -0.740184 0.509572 -0.429309 242 140 38
0.0321916 0.0449247 0.0301496 0.372341 -0.481558 0.792436 242 140 38
0.020833 0.0855593 0.0497523 0.25449 0.311636 0.914727 242 140 38
-0.0189613 0.0392588 0.0390277 0.0377573 -0.99369 0.103038 242 140 38
-0.0703068 0.041274 0.00505554 -0.811072 0.549781 -0.186602 242 140 38
-0.0231841 0.169856 -0.0195556 -0.260777 -0.35158 -0.898649 242 140 38
-0.0861934 0.142114 0.00760216 -0.858687 0.251701 -0.421224 242 140 38
0.0337053 0.0703996 -0.01702 0.716677 0.0308053 -0.695135 242 140 38
0.0323461 0.10481 -0.0123124 0.558934 0.452902 -0.693467 242 140 38
-0.0332735 0.0853237 -0.025414 -0.713116 0.162246 -0.674335 242 140 38
-0.0535438 0.0584055 0.0226304 -0.53511 -0.75404 0.330351 242 140 38
0.0287425 0.080368 -0.021616 0.663135 0.140678 -0.733999 242 140 38
0.0600891 0.059767 0.0178435 0.970436 -0.12484 0.204418 242 140 38
-0.000115631 0.0623323 -0.0340312 0.123987 -0.21613 -0.96441 242 140 38
0.00915316 0.03462 0.038444 0.00927429 -0.998133 -0.0539325 242 140 38
-0.074468 0.15196 -0.0285136 -0.942784 0.2899 -0.14656 242 140 38
-0.0177638 0.184021 -0.0242528 -0.664061 0.341549 -0.658275 242 140 38
0.0546111 0.0506864 0.0225739 0.656827 -0.576839 0.484978 242 140 38
-0.0809368 0.139998 0.0467223 -0.457114 0.571843 0.679417 242 140 38
-0.00817645 0.130264 0.00853157 -0.178619 0.980955 -0.074732 242 140 38
0.00905133 0.0511699 -0.0290404 0.162044 -0.407839 -0.896602 242 140 38
-0.0890518 0.137223 0.0259338 -0.960128 0.0559291 0.180072 242 140 38
-0.0696803 0.0756488 0.0380062 -0.377656 -0.461501 0.802505 242 140 38
-0.0591266 0.128745 -0.00715897 0.354489 0.12135 -0.92613 242 140 38
-0.0704748 0.0771945 0.0384752 -0.422616 -0.428665 0.797939 242 140 38
-0.0277095 0.157584 -0.0109714 0.146077 -0.792565 -0.591538 242 140 38
-0.00797393 0.088169 -0.0368172 0.143895 0.271253 -0.951309 242 140 38
-0.0417056 0.0604915 0.0406244 -0.21124 -0.23607 0.946885 242 140 38
0.0301728 0.0491658 0.0356611 0.684308 -0.396913 0.609223 242 140 38
-0.0423322 0.102429 -0.0212381 0.0996246 0.170499 -0.978488 242 140 38
-0.0758021 0.14881 0.0399251 -0.138927 0.799704 0.582886 242 140 38
-0.0447983 0.111757 0.0364911 0.000483979 0.677826 0.73507 242 140 38
0.0168279 0.114804 0.0371211 0.190777 0.39955 0.895367 242 140 38
0.0307479 0.118327 0.0226731 0.705774 0.687904 0.166905 242 140 38
-0.0623938 0.147838 -0.00862592 0.996927 -0.0330083 -0.0199998 242 140 38
0.0587234 0.053946 0.0143809 0.930795 -0.361072 0.0563743 242 140 38
-0.0010266 0.0999592 -0.0236941 0.103104 0.743425 -0.6402 242 140 38
-0.0334209 0.0481441 -0.021011 -0.342665 0.895971 -0.280721 242 140 38
0.00342068 0.0367721 0.0462246 0.180962 -0.060881 0.975954 242 140 38
0.0228956 0.0885908 -0.024253 0.384279 0.227679 -0.893863 242 140 38
-0.017239 0.163293 -0.00903281 0.319081 0.692228 0.635847 242 140 38
-0.00553911 0.0436636 -0.0263734 0.107211 -0.676261 -0.727393 242 140 38
0.0154057 0.0468776 -0.024472 0.433601 -0.251752 -0.854815 242 140 38
-0.0506136 0.0475856 0.0399184 0.0285333 0.836075 0.543917 242 140 38
-0.0182388 0.164865 -0.0105808 0.244068 0.722114 0.645444 242 140 38
-0.093978 0.123753 0.0250276 -0.961196 0.0366186 0.270983 242 140 38
-0.00817756 0.0952169 -0.0330369 0.0178246 0.771354 -0.634596 242 140 38
