ply
format ascii 1.0
comment web version (decimated, ASCII)
element vertex 1219
property float x
property float y
property float z
property uchar red
property uchar green
property uchar blue
end_header
-0.114636 -0.567063 -0.664971 106 77 66
-0.0902569 -0.567598 -0.66543 121 91 69
-0.140328 -0.410304 -0.622982 31 35 36
-0.142166 -0.426417 -0.625414 81 74 67
-0.142144 -0.442386 -0.627906 92 84 73
-0.129625 -0.453157 -0.630141 82 71 61
-0.118167 -0.464013 -0.632342 34 49 61
-0.107943 -0.475154 -0.634533 34 49 61
-0.12879 -0.560937 -0.64699 60 42 36
-0.0859027 -0.567387 -0.649897 114 85 64
-0.128714 -0.379676 -0.604703 29 44 57
-0.122847 -0.392004 -0.60687 19 25 29
-0.120929 -0.405753 -0.608946 27 31 32
-0.123691 -0.421638 -0.610977 59 55 53
-0.120514 -0.435686 -0.613187 59 55 53
-0.114783 -0.448811 -0.615456 62 55 52
-0.108149 -0.461552 -0.617738 51 56 60
-0.103878 -0.475582 -0.620026 42 63 79
-0.0978371 -0.488773 -0.622327 55 74 86
-0.125825 -0.562161 -0.630589 94 76 67
-0.0984114 -0.561306 -0.632489 96 64 54
-0.0817664 -0.567315 -0.634562 120 89 70
-0.128973 -0.354481 -0.587442 57 31 31
-0.12984 -0.368145 -0.589065 57 31 31
-0.124988 -0.380637 -0.591131 57 31 31
-0.117968 -0.392531 -0.593346 13 20 25
-0.116775 -0.406454 -0.595214 26 27 29
-0.119532 -0.422303 -0.596916 45 37 34
-0.115701 -0.436003 -0.599028 45 37 34
-0.110456 -0.449248 -0.60123 62 55 52
-0.105167 -0.462578 -0.603446 77 67 63
-0.103255 -0.47788 -0.605561 63 85 99
-0.161651 -0.570302 -0.611118 115 73 46
-0.0891242 -0.557351 -0.616979 96 64 54
-0.0807221 -0.569787 -0.619405 92 76 73
-0.129173 -0.356398 -0.573869 119 85 59
-0.138696 -0.372396 -0.574363 119 85 59
-0.125808 -0.382906 -0.57723 32 24 21
-0.118517 -0.394799 -0.579505 15 22 26
-0.117032 -0.408727 -0.581233 18 21 22
-0.119942 -0.424765 -0.582609 30 21 17
-0.116286 -0.438644 -0.58462 30 21 17
-0.112975 -0.452915 -0.586628 44 37 35
-0.106957 -0.466055 -0.588872 49 43 41
-0.0766092 -0.550713 -0.602207 104 78 62
-0.0779505 -0.570818 -0.604238 79 76 88
-0.136099 -0.388013 -0.561876 15 13 11
-0.126756 -0.399641 -0.564493 27 35 38
-0.117861 -0.457779 -0.571428 46 42 40
-0.111727 -0.471139 -0.573687 46 42 40
-0.121691 -0.549376 -0.579453 59 31 17
-0.0729094 -0.550953 -0.587533 80 75 85
-0.0751873 -0.571842 -0.589135 65 73 96
-0.0853349 -0.362157 -0.554998 97 69 64
-0.0815332 -0.37366 -0.556636 96 72 67
-0.0879095 -0.388725 -0.556597 96 72 67
-0.13162 -0.467065 -0.554361 81 59 46
-0.127576 -0.482185 -0.556332 81 59 46
-0.0748328 -0.519405 -0.569418 100 80 71
-0.0701439 -0.533662 -0.571444 80 77 89
-0.0707671 -0.552423 -0.572804 65 75 100
-0.0735644 -0.573836 -0.573954 81 79 90
-0.08552 -0.351651 -0.541546 87 59 54
-0.0772581 -0.361753 -0.544023 97 69 64
-0.0794288 -0.374879 -0.54437 97 69 64
-0.082284 -0.388786 -0.544613 96 72 67
-0.0805371 -0.401574 -0.545811 94 66 60
-0.0786582 -0.414616 -0.547053 92 63 57
-0.0764268 -0.42781 -0.548384 83 51 41
-0.0781927 -0.443285 -0.548969 73 40 30
-0.0860931 -0.462701 -0.548439 53 26 11
-0.0836578 -0.477335 -0.549906 55 29 17
-0.0775821 -0.490052 -0.552062 93 77 72
-0.0718963 -0.503068 -0.55415 78 72 78
-0.0717424 -0.520133 -0.555263 78 72 78
-0.0697944 -0.536452 -0.556728 63 65 80
-0.0693921 -0.554519 -0.55796 74 69 78
-0.0700611 -0.574197 -0.559055 91 67 55
-0.0802879 -0.352108 -0.530247 81 54 49
-0.0756609 -0.363086 -0.531938 119 87 82
-0.0838869 -0.37814 -0.530575 119 87 82
-0.0820843 -0.418207 -0.532935 69 45 38
-0.0766769 -0.430161 -0.534869 92 59 51
-0.0714634 -0.442266 -0.536761 92 59 51
-0.0687673 -0.45581 -0.538086 80 47 36
-0.065954 -0.46958 -0.539451 68 35 24
-0.0691705 -0.487458 -0.539488 66 36 27
-0.0700374 -0.504618 -0.540085 61 37 30
-0.0692573 -0.521281 -0.541074 59 38 34
-0.0680708 -0.538202 -0.542178 63 65 80
-0.0668693 -0.555675 -0.543311 80 48 35
-0.0678806 -0.575695 -0.544007 91 67 55
-0.070199 -0.474633 -0.524446 105 82 74
-0.0665338 -0.488456 -0.525922 66 36 27
-0.0651756 -0.504109 -0.526804 61 37 30
-0.0661889 -0.521991 -0.527085 79 55 49
-0.0648022 -0.538743 -0.528009 73 45 34
-0.0698394 -0.56142 -0.527305 71 46 34
-0.107484 -0.572916 -0.67784 121 92 82
-0.140422 -0.417978 -0.63614 95 75 66
-0.138282 -0.431164 -0.638355 71 60 47
-0.135091 -0.444167 -0.640675 70 60 46
-0.130026 -0.456424 -0.643119 69 57 46
-0.124896 -0.46879 -0.645587 33 36 40
-0.127418 -0.575894 -0.661085 86 69 62
-0.101251 -0.571614 -0.663732 121 91 69
-0.128259 -0.4014 -0.622606 15 25 31
-0.127559 -0.414519 -0.62443 31 35 36
-0.12755 -0.428404 -0.626248 53 42 33
-0.125108 -0.441543 -0.628342 82 71 61
-0.121649 -0.454458 -0.630562 82 71 61
-0.117009 -0.466939 -0.632905 34 49 61
-0.113326 -0.480225 -0.635208 62 90 111
-0.148239 -0.578226 -0.642686 130 92 69
-0.122086 -0.575699 -0.646361 75 55 49
-0.0947012 -0.569956 -0.649803 114 85 64
-0.126278 -0.376926 -0.607385 29 44 57
-0.119137 -0.386874 -0.609813 16 24 29
-0.118689 -0.399488 -0.61133 16 24 29
-0.118489 -0.412641 -0.612864 30 32 33
-0.117182 -0.42573 -0.61459 59 55 53
-0.115471 -0.439015 -0.616413 56 45 41
-0.113581 -0.452598 -0.618302 83 73 67
-0.109628 -0.46533 -0.620469 34 49 61
-0.1068 -0.479043 -0.622543 52 74 89
-0.102007 -0.491744 -0.624858 52 74 89
-0.143824 -0.579062 -0.627213 132 92 67
-0.116408 -0.575165 -0.631742 95 70 59
-0.0883922 -0.568464 -0.636061 110 82 65
-0.13398 -0.356509 -0.591293 57 31 31
-0.128034 -0.366845 -0.59354 57 31 31
-0.120432 -0.376631 -0.596082 12 21 30
-0.113803 -0.386685 -0.598445 29 44 57
-0.112649 -0.398971 -0.599874 16 24 29
-0.113101 -0.412362 -0.601072 30 32 33
-0.112432 -0.425727 -0.602503 55 50 49
-0.111552 -0.439444 -0.604012 55 50 49
-0.10856 -0.452421 -0.605894 62 55 52
-0.105222 -0.4655 -0.607858 51 56 60
-0.101957 -0.478931 -0.60984 55 74 86
-0.0981563 -0.492308 -0.61193 55 74 86
-0.163618 -0.579319 -0.606582 115 73 46
-0.137164 -0.577958 -0.612007 96 76 66
-0.109483 -0.573447 -0.617386 79 62 56
-0.0841018 -0.568891 -0.622278 110 82 65
-0.129294 -0.356681 -0.579873 119 85 59
-0.1274 -0.368246 -0.58124 119 85 59
-0.121395 -0.378677 -0.5835 57 31 31
-0.111027 -0.387456 -0.586673 13 20 25
-0.11026 -0.399958 -0.587845 13 20 25
-0.110182 -0.41319 -0.588909 26 27 29
-0.109875 -0.4268 -0.590058 45 37 34
-0.109553 -0.440904 -0.59125 44 37 35
-0.107742 -0.45467 -0.592771 44 37 35
-0.103902 -0.467593 -0.59471 49 43 41
-0.100549 -0.48111 -0.59658 63 85 99
-0.157309 -0.57878 -0.590725 83 42 21
-0.131845 -0.577981 -0.596752 86 61 47
-0.0973941 -0.566824 -0.604109 92 76 73
-0.0801685 -0.569669 -0.608453 79 76 88
-0.112321 -0.389813 -0.573856 15 22 26
-0.110077 -0.401897 -0.575199 18 21 22
-0.115122 -0.417677 -0.574809 18 21 22
-0.117836 -0.448007 -0.575937 32 30 28
-0.11161 -0.45973 -0.578328 46 42 40
-0.105967 -0.471879 -0.580588 46 42 40
-0.130625 -0.504815 -0.57598 68 36 25
-0.151037 -0.578236 -0.574992 78 45 25
-0.128001 -0.5793 -0.581246 86 61 47
-0.0803401 -0.555269 -0.592579 119 91 68
-0.0753609 -0.569567 -0.594793 65 73 96
-0.116887 -0.39351 -0.559766 27 35 38
-0.130421 -0.473855 -0.559193 81 59 46
-0.138322 -0.495779 -0.55778 90 59 37
-0.0795522 -0.540273 -0.577252 92 65 57
-0.0743344 -0.554001 -0.579403 80 75 85
-0.0721164 -0.571049 -0.580801 65 73 96
-0.0961331 -0.36302 -0.552551 87 59 54
-0.0861866 -0.371287 -0.556029 96 72 67
-0.0870565 -0.383569 -0.556048 96 72 67
-0.0840763 -0.5125 -0.560231 55 36 29
-0.0768703 -0.523998 -0.562887 80 77 89
-0.0728673 -0.538417 -0.564563 96 74 65
-0.0699398 -0.554254 -0.565919 65 75 100
-0.0703732 -0.574124 -0.56627 81 79 90
-0.0923736 -0.363353 -0.541625 87 59 54
-0.084045 -0.372176 -0.544678 97 69 64
-0.0830658 -0.38379 -0.545102 96 72 67
-0.0786686 -0.394264 -0.54675 94 66 60
-0.0727314 -0.404114 -0.548948 92 63 57
-0.071781 -0.416588 -0.549368 92 63 57
-0.0759314 -0.432405 -0.547973 83 51 41
-0.0782772 -0.448037 -0.547225 73 40 30
-0.0816418 -0.465157 -0.546121 55 29 17
-0.0819182 -0.481044 -0.54612 55 29 17
-0.0792776 -0.495414 -0.54716 93 77 72
-0.0757245 -0.509482 -0.548526 78 72 78
-0.0714869 -0.523324 -0.550138 63 65 80
-0.0678279 -0.538021 -0.551546 63 65 80
-0.0658967 -0.554847 -0.552346 74 69 78
-0.0652246 -0.57367 -0.552705 91 67 55
-0.0893008 -0.363912 -0.530462 97 69 64
-0.0818804 -0.373069 -0.533249 97 69 64
-0.0729069 -0.419498 -0.536171 69 45 38
-0.070005 -0.431522 -0.537154 92 59 51
-0.069341 -0.44524 -0.53724 80 47 36
-0.0698019 -0.460245 -0.53687 80 47 36
-0.0665721 -0.473264 -0.537968 68 35 24
-0.0661659 -0.488807 -0.53793 66 36 27
-0.0663963 -0.505547 -0.537628 61 37 30
-0.0634854 -0.52029 -0.53858 79 55 49
-0.0610869 -0.535984 -0.539319 59 38 34
-0.0598275 -0.553393 -0.539591 80 48 35
-0.0675797 -0.477226 -0.523577 105 82 74
-0.0646192 -0.49108 -0.524388 85 54 44
-0.0602445 -0.504151 -0.525823 85 54 44
-0.0580349 -0.519442 -0.52627 78 51 45
-0.0557842 -0.535249 -0.526719 79 55 49
-0.15588 -0.446722 -0.640455 90 77 60
-0.148695 -0.457879 -0.643848 90 77 60
-0.137569 -0.466432 -0.647603 95 83 69
-0.132654 -0.565792 -0.665696 60 42 36
-0.119187 -0.571911 -0.669513 86 69 62
-0.0986363 -0.569797 -0.673368 121 91 69
-0.145056 -0.415306 -0.624062 81 74 67
-0.150764 -0.432561 -0.625417 107 99 83
-0.147958 -0.445957 -0.628166 92 84 73
-0.136221 -0.454203 -0.632205 82 71 61
-0.123234 -0.461152 -0.636335 33 36 40
-0.117172 -0.472318 -0.639499 39 53 64
-0.146178 -0.564935 -0.647155 130 92 69
-0.137406 -0.576463 -0.651011 130 92 69
-0.111051 -0.569979 -0.656179 101 72 59
-0.0916649 -0.568661 -0.660519 121 91 69
-0.125578 -0.3828 -0.611197 19 25 29
-0.121328 -0.393683 -0.613843 19 25 29
-0.118997 -0.40562 -0.61613 27 31 32
-0.123627 -0.421545 -0.617135 59 55 53
-0.121371 -0.434361 -0.619525 56 45 41
-0.117748 -0.446638 -0.6222 83 73 67
-0.112823 -0.458255 -0.625127 83 73 67
-0.110455 -0.471786 -0.627647 34 49 61
-0.103255 -0.481991 -0.630977 52 74 89
-0.149867 -0.574448 -0.631602 132 92 67
-0.129176 -0.574857 -0.637126 94 76 67
-0.103363 -0.568397 -0.643042 101 72 59
-0.0852776 -0.568082 -0.647776 114 85 64
-0.138127 -0.377734 -0.594284 57 31 31
-0.118784 -0.382576 -0.600578 29 44 57
-0.113901 -0.393083 -0.603314 16 24 29
-0.112008 -0.405148 -0.605361 30 32 33
-0.112527 -0.418829 -0.606898 30 32 33
-0.112622 -0.432784 -0.608594 55 50 49
-0.110469 -0.445833 -0.61084 62 55 52
-0.107381 -0.458585 -0.613324 62 55 52
-0.107138 -0.473667 -0.615258 51 56 60
-0.100122 -0.484066 -0.618609 55 74 86
-0.156489 -0.566472 -0.612187 115 83 63
-0.145088 -0.576368 -0.616767 115 83 63
-0.118895 -0.571114 -0.623832 95 70 59
-0.0966272 -0.567716 -0.62997 110 82 65
-0.0811545 -0.569971 -0.634805 120 89 70
-0.148487 -0.371223 -0.577082 119 85 59
-0.135871 -0.379463 -0.582067 119 85 59
-0.11403 -0.383197 -0.589571 12 21 30
-0.109794 -0.393998 -0.592103 13 20 25
-0.108486 -0.406406 -0.593853 26 27 29
-0.109114 -0.420246 -0.595126 45 37 34
-0.109109 -0.434251 -0.596623 45 37 34
-0.10769 -0.447861 -0.598537 44 37 35
-0.104134 -0.46041 -0.601034 82 69 63
-0.106687 -0.477703 -0.602049 63 85 99
-0.106823 -0.493948 -0.603739 44 66 82
-0.162773 -0.578357 -0.594546 83 42 21
-0.134736 -0.573008 -0.603097 96 76 66
-0.109997 -0.568583 -0.610674 79 62 56
-0.0858292 -0.562607 -0.617899 96 64 54
-0.0823694 -0.577977 -0.620666 92 76 73
-0.123413 -0.377111 -0.572953 119 85 59
-0.11124 -0.384678 -0.577976 15 22 26
-0.107813 -0.395941 -0.580209 15 22 26
-0.106615 -0.408545 -0.581766 18 21 22
-0.107728 -0.422832 -0.58265 30 21 17
-0.108193 -0.437324 -0.583783 45 37 34
-0.107437 -0.45159 -0.585333 44 37 35
-0.104737 -0.464979 -0.587497 49 43 41
-0.149989 -0.573238 -0.581057 86 52 35
-0.125942 -0.570989 -0.589436 86 61 47
-0.101387 -0.566208 -0.597769 68 49 41
-0.0743793 -0.556538 -0.606539 104 78 62
-0.119433 -0.378121 -0.561407 119 85 59
-0.110548 -0.387131 -0.565513 15 22 26
-0.107449 -0.398722 -0.567556 15 22 26
-0.107152 -0.412017 -0.568632 18 21 22
-0.10869 -0.426836 -0.569105 30 21 17
-0.110756 -0.442643 -0.569443 32 30 28
-0.108228 -0.456125 -0.5714 32 30 28
-0.105567 -0.469853 -0.573427 46 42 40
-0.132122 -0.563137 -0.56984 59 31 17
-0.113617 -0.565347 -0.577196 48 33 31
-0.0747442 -0.563394 -0.592173 65 73 96
-0.110602 -0.389989 -0.552463 27 35 38
-0.0702058 -0.527994 -0.577014 80 77 89
-0.0725102 -0.548512 -0.577161 65 75 100
-0.0719946 -0.566941 -0.578382 81 79 90
-0.079193 -0.354923 -0.551977 87 59 54
-0.0773324 -0.365561 -0.553211 97 69 64
-0.0785084 -0.402817 -0.554031 94 66 60
-0.0880813 -0.421723 -0.550363 83 51 41
-0.0829343 -0.461971 -0.554169 53 26 11
-0.0786555 -0.474179 -0.55656 55 29 17
-0.0744883 -0.486661 -0.55891 99 79 67
-0.069548 -0.498645 -0.561594 99 79 67
-0.0666151 -0.5127 -0.56344 100 80 71
-0.0695709 -0.533217 -0.562841 80 77 89
-0.0703264 -0.552498 -0.563199 65 75 100
-0.0709224 -0.572553 -0.563657 81 79 90
-0.0835531 -0.347544 -0.537659 87 59 54
-0.0718668 -0.354312 -0.543495 87 59 54
-0.0723206 -0.365852 -0.543479 97 69 64
-0.0785333 -0.380588 -0.540705 96 72 67
-0.0776873 -0.392617 -0.541334 94 66 60
-0.0790517 -0.406288 -0.540912 92 63 57
-0.0813282 -0.421134 -0.540064 69 45 38
-0.0793096 -0.433895 -0.54128 83 51 41
-0.0769633 -0.446784 -0.542658 73 40 30
-0.0735685 -0.459224 -0.544541 53 26 11
-0.0716904 -0.473155 -0.545709 90 64 53
-0.070351 -0.487997 -0.546629 93 77 72
-0.070365 -0.50463 -0.54692 78 72 78
-0.0691105 -0.520744 -0.547822 63 65 80
-0.0676406 -0.537254 -0.548836 63 65 80
-0.0683656 -0.556862 -0.548833 74 69 78
-0.0693918 -0.577819 -0.548706 91 67 55
-0.0783051 -0.347822 -0.528096 81 54 49
-0.0677796 -0.354957 -0.533602 81 54 49
-0.0658954 -0.365495 -0.534579 119 87 82
-0.0721959 -0.380278 -0.531265 119 87 82
-0.0805534 -0.45347 -0.526818 80 47 36
-0.0742567 -0.464124 -0.530106 68 35 24
-0.0718546 -0.477972 -0.531351 68 35 24
-0.0699945 -0.492707 -0.532311 66 36 27
-0.0682941 -0.508089 -0.533187 61 37 30
-0.0665659 -0.523995 -0.534077 59 38 34
-0.0659292 -0.541659 -0.534394 68 40 30
-0.0675573 -0.562691 -0.533521 71 46 34
-0.0705251 -0.358419 -0.51985 119 87 82
-0.0646186 -0.367431 -0.52297 119 87 82
-0.139345 -0.452209 -0.655063 90 77 60
-0.157788 -0.427438 -0.630154 107 99 83
-0.14812 -0.435528 -0.635447 71 60 47
-0.137943 -0.442997 -0.640783 70 60 46
-0.130043 -0.451402 -0.645511 69 57 46
-0.124109 -0.460815 -0.649759 33 36 40
-0.137558 -0.397901 -0.61865 15 25 31
-0.137736 -0.409748 -0.621053 31 35 36
-0.144081 -0.424953 -0.621749 81 74 67
-0.138905 -0.435039 -0.625875 53 42 33
-0.129504 -0.442753 -0.631158 82 71 61
-0.122527 -0.451577 -0.635725 82 71 61
-0.119086 -0.462523 -0.639354 39 53 64
-0.116594 -0.47427 -0.642779 39 53 64
-0.129803 -0.560929 -0.655708 60 42 36
-0.125007 -0.573454 -0.660196 86 69 62
-0.109205 -0.574555 -0.666598 106 77 66
-0.127657 -0.385901 -0.608054 19 25 29
-0.122876 -0.395216 -0.611865 19 25 29
-0.121576 -0.406117 -0.614511 27 31 32
-0.125087 -0.419668 -0.615632 59 55 53
-0.125804 -0.432391 -0.617776 59 55 53
-0.121984 -0.44297 -0.621425 56 45 41
-0.116494 -0.452623 -0.625601 83 73 67
-0.11302 -0.463575 -0.629175 34 49 61
-0.111656 -0.476168 -0.632173 34 49 61
-0.113256 -0.491352 -0.634416 52 74 89
-0.139314 -0.560326 -0.636666 60 42 36
-0.129823 -0.568882 -0.642322 75 55 49
-0.119583 -0.576286 -0.648074 101 72 59
-0.101905 -0.575172 -0.655331 101 72 59
-0.137046 -0.381242 -0.590664 57 31 31
-0.120434 -0.386281 -0.599116 29 44 57
-0.116761 -0.396015 -0.602496 16 24 29
-0.116469 -0.407413 -0.604629 30 32 33
-0.119181 -0.420692 -0.605721 55 50 49
-0.118342 -0.432641 -0.608199 55 50 49
-0.115943 -0.444018 -0.611287 62 55 52
-0.111858 -0.454556 -0.614996 62 55 52
-0.107935 -0.465294 -0.618667 51 56 60
-0.108211 -0.479194 -0.620979 44 66 82
-0.109052 -0.494057 -0.623202 52 74 89
-0.127945 -0.575329 -0.628847 94 76 67
-0.113568 -0.57859 -0.635969 95 70 59
-0.0937868 -0.574849 -0.644325 114 85 64
-0.127224 -0.380811 -0.582521 57 31 31
-0.116726 -0.388046 -0.588802 13 20 25
-0.113641 -0.398125 -0.591905 13 20 25
-0.114058 -0.410021 -0.59358 26 27 29
-0.116157 -0.423218 -0.594637 45 37 34
-0.115997 -0.435731 -0.596692 45 37 34
-0.113284 -0.447117 -0.599818 44 37 35
-0.108925 -0.457645 -0.603615 77 67 63
-0.105499 -0.468897 -0.60707 51 56 60
-0.106538 -0.483648 -0.608891 44 66 82
-0.107721 -0.499137 -0.610759 44 66 82
-0.165563 -0.563357 -0.59259 83 42 21
-0.150564 -0.568688 -0.600775 115 83 63
-0.135538 -0.573054 -0.608819 96 76 66
-0.121192 -0.577112 -0.616483 96 76 66
-0.105993 -0.579273 -0.624264 95 70 59
-0.0875444 -0.576581 -0.632869 110 82 65
-0.121643 -0.381897 -0.572693 32 24 21
-0.114854 -0.390615 -0.577474 15 22 26
-0.112509 -0.401198 -0.580187 18 21 22
-0.112133 -0.412956 -0.582031 18 21 22
-0.117053 -0.427924 -0.581547 30 21 17
-0.11648 -0.440567 -0.583618 32 30 28
-0.113995 -0.452425 -0.586583 44 37 35
-0.108925 -0.462806 -0.590695 49 43 41
-0.106103 -0.474818 -0.593857 235 224 205
-0.145331 -0.572281 -0.586938 86 52 35
-0.130116 -0.576369 -0.59549 86 61 47
-0.113577 -0.578024 -0.604394 79 62 56
-0.0866381 -0.566869 -0.616958 92 76 73
-0.122186 -0.385359 -0.559706 27 35 38
-0.117203 -0.395069 -0.563679 27 35 38
-0.117538 -0.407257 -0.564973 29 33 34
-0.119381 -0.460958 -0.570473 46 42 40
-0.110911 -0.469559 -0.576265 46 42 40
-0.143218 -0.578977 -0.571473 78 45 25
-0.0850773 -0.556442 -0.601307 121 91 62
-0.0797257 -0.567857 -0.605694 79 76 88
-0.121033 -0.388286 -0.547114 27 35 38
-0.119641 -0.399758 -0.549123 27 35 38
-0.127068 -0.47142 -0.552044 81 59 46
-0.122435 -0.483368 -0.556037 81 59 46
-0.0751528 -0.554082 -0.591537 80 75 85
-0.0770272 -0.573789 -0.59244 65 73 96
-0.0940392 -0.359254 -0.547846 87 59 54
-0.0878319 -0.367514 -0.552476 97 69 64
-0.0881844 -0.378332 -0.553151 96 72 67
-0.116405 -0.534271 -0.548181 64 30 11
-0.0973788 -0.533951 -0.560243 55 31 20
-0.0771073 -0.530785 -0.572859 80 77 89
-0.0731454 -0.543298 -0.576416 92 65 57
-0.0729928 -0.560374 -0.577932 81 79 90
-0.0843819 -0.348636 -0.540901 87 59 54
-0.0799728 -0.357226 -0.544417 87 59 54
-0.0794135 -0.367287 -0.545427 97 69 64
-0.0801178 -0.378189 -0.545639 96 72 67
-0.0794688 -0.388896 -0.54675 96 72 67
-0.0761823 -0.398605 -0.549579 94 66 60
-0.0766249 -0.41049 -0.550028 92 63 57
-0.085226 -0.427724 -0.545311 83 51 41
-0.085494 -0.482911 -0.548604 72 49 37
-0.0811004 -0.494305 -0.552286 72 49 37
-0.0763359 -0.505477 -0.556203 78 72 78
-0.072512 -0.517649 -0.559549 100 80 71
-0.0713038 -0.53275 -0.561315 80 77 89
-0.0699099 -0.548213 -0.563229 65 75 100
-0.0708978 -0.567062 -0.563749 81 79 90
-0.0825065 -0.340664 -0.529328 81 54 49
-0.0752389 -0.348316 -0.534848 81 54 49
-0.0729149 -0.357493 -0.536897 81 54 49
-0.073103 -0.367818 -0.537197 119 87 82
-0.0738475 -0.401233 -0.538074 94 66 60
-0.07523 -0.41388 -0.537619 69 45 38
-0.073484 -0.425184 -0.539344 83 51 41
-0.075357 -0.4392 -0.538596 92 59 51
-0.0743518 -0.45185 -0.539848 73 40 30
-0.0728463 -0.464546 -0.54146 90 64 53
-0.0725369 -0.47863 -0.542275 90 64 53
-0.0715357 -0.492667 -0.543584 93 77 72
-0.0703557 -0.507053 -0.545034 78 72 78
-0.068525 -0.521312 -0.546945 63 65 80
-0.0677667 -0.5372 -0.548157 63 65 80
-0.0693517 -0.556425 -0.547834 74 69 78
-0.0719291 -0.577901 -0.546897 91 67 55
-0.0758535 -0.341158 -0.521645 81 54 49
-0.0694724 -0.349015 -0.526638 81 54 49
-0.0681073 -0.358539 -0.527869 119 87 82
-0.0691667 -0.369288 -0.52729 119 87 82
-0.0718719 -0.455539 -0.52703 80 47 36
-0.0675374 -0.466273 -0.530534 68 35 24
-0.063659 -0.477491 -0.533702 68 35 24
-0.0614862 -0.490419 -0.535614 66 36 27
-0.0612186 -0.505584 -0.536131 78 51 45
-0.0621096 -0.52261 -0.53581 79 55 49
-0.0649645 -0.542673 -0.534065 68 40 30
-0.0707991 -0.567456 -0.530163 71 46 34
-0.152403 -0.440238 -0.642997 71 60 47
-0.147527 -0.450686 -0.647084 90 77 60
-0.151342 -0.41822 -0.626688 81 74 67
-0.148963 -0.4298 -0.629591 107 99 83
-0.145919 -0.4412 -0.63283 92 84 73
-0.142435 -0.452471 -0.636292 90 77 60
-0.139314 -0.464052 -0.639598 95 83 69
-0.137506 -0.476625 -0.642328 95 83 69
-0.148323 -0.578722 -0.650612 130 92 69
-0.131893 -0.57965 -0.659685 75 55 49
-0.114824 -0.578568 -0.668827 106 77 66
-0.136171 -0.403011 -0.619667 31 35 36
-0.139233 -0.416521 -0.619549 81 74 67
-0.148696 -0.433832 -0.616175 87 88 73
-0.141765 -0.443448 -0.621392 92 84 73
-0.136265 -0.453693 -0.625853 82 71 61
-0.127731 -0.461933 -0.631834 66 63 57
-0.126109 -0.474485 -0.634323 77 85 87
-0.156001 -0.577203 -0.629581 132 92 67
-0.139507 -0.579004 -0.639399 130 92 69
-0.121376 -0.577773 -0.649796 75 55 49
-0.104192 -0.576017 -0.659578 101 72 59
-0.131725 -0.381096 -0.606401 19 25 29
-0.124286 -0.389789 -0.611948 19 25 29
-0.12117 -0.400069 -0.614981 27 31 32
-0.122193 -0.412379 -0.615661 27 31 32
-0.125019 -0.426056 -0.615369 59 55 53
-0.123397 -0.437876 -0.617639 59 55 53
-0.122641 -0.450463 -0.619454 83 73 67
-0.118412 -0.461133 -0.623219 83 73 67
-0.117118 -0.473869 -0.625383 34 49 61
-0.118801 -0.489143 -0.625971 52 74 89
-0.127225 -0.51044 -0.623018 46 49 48
-0.162586 -0.574066 -0.607869 115 73 46
-0.145873 -0.576541 -0.618507 132 92 67
-0.129048 -0.577583 -0.629062 94 76 67
-0.110503 -0.575355 -0.640335 101 72 59
-0.0948451 -0.574743 -0.649988 114 85 64
-0.135967 -0.362436 -0.588242 57 31 31
-0.132992 -0.372882 -0.591149 57 31 31
-0.123502 -0.381087 -0.598161 29 44 57
-0.117557 -0.390283 -0.602919 16 24 29
-0.114614 -0.400652 -0.605797 16 24 29
-0.114541 -0.41251 -0.606912 30 32 33
-0.116634 -0.425869 -0.60673 55 50 49
-0.116092 -0.43829 -0.608205 55 50 49
-0.115064 -0.450763 -0.610007 62 55 52
-0.111928 -0.462149 -0.613104 51 56 60
-0.11072 -0.475048 -0.615063 51 56 60
-0.111169 -0.489555 -0.616071 44 66 82
-0.147509 -0.569093 -0.599199 115 83 63
-0.132861 -0.57293 -0.609228 96 76 66
-0.116927 -0.574277 -0.619885 95 70 59
-0.0993171 -0.572392 -0.631358 95 70 59
-0.0880843 -0.576415 -0.639146 110 82 65
-0.132275 -0.352628 -0.576048 119 85 59
-0.127268 -0.362409 -0.580277 119 85 59
-0.128503 -0.37418 -0.580259 119 85 59
-0.119695 -0.38268 -0.587068 12 21 30
-0.114139 -0.392137 -0.591659 13 20 25
-0.111693 -0.402888 -0.594157 26 27 29
-0.111083 -0.414705 -0.595441 26 27 29
-0.112036 -0.427697 -0.59571 45 37 34
-0.112642 -0.440972 -0.596244 44 37 35
-0.112369 -0.454166 -0.59739 44 37 35
-0.109127 -0.465729 -0.600507 49 43 41
-0.106366 -0.477778 -0.60332 63 85 99
-0.10646 -0.492277 -0.604303 44 66 82
-0.134403 -0.565665 -0.589961 86 61 47
-0.120737 -0.569955 -0.599881 68 49 41
-0.105182 -0.571125 -0.610904 79 62 56
-0.0877072 -0.568703 -0.623018 110 82 65
-0.119218 -0.385603 -0.573259 15 22 26
-0.113788 -0.395369 -0.577843 15 22 26
-0.111574 -0.406536 -0.5801 18 21 22
-0.112425 -0.41946 -0.580162 30 21 17
-0.130509 -0.442505 -0.567897 44 26 18
-0.119876 -0.450276 -0.57626 32 30 28
-0.116626 -0.462314 -0.579337 46 42 40
-0.111432 -0.473119 -0.583801 46 42 40
-0.122918 -0.512459 -0.577344 216 204 190
-0.131654 -0.554094 -0.573066 59 31 17
-0.124385 -0.56505 -0.579088 56 35 27
-0.0895461 -0.563334 -0.605021 121 91 62
-0.0790086 -0.568206 -0.613156 79 76 88
-0.124446 -0.390908 -0.554337 27 35 38
-0.114965 -0.399432 -0.56215 29 33 34
-0.120592 -0.470741 -0.560176 81 59 46
-0.11622 -0.482756 -0.564061 1 1 1
-0.11776 -0.499481 -0.563424 216 204 190
-0.120852 -0.55278 -0.56283 59 31 17
-0.113678 -0.56364 -0.568896 48 33 31
-0.0957688 -0.562479 -0.583053 72 65 70
-0.0755555 -0.556881 -0.598881 104 78 62
-0.0749825 -0.573422 -0.599912 79 76 88
-0.117683 -0.391667 -0.544067 27 35 38
-0.109774 -0.533467 -0.55283 55 31 20
-0.102919 -0.544208 -0.558751 50 37 37
-0.0867912 -0.544842 -0.572314 102 78 72
-0.0728399 -0.546421 -0.584061 80 75 85
-0.0717803 -0.562267 -0.585188 65 73 96
-0.0960951 -0.363145 -0.547102 87 59 54
-0.0957869 -0.374403 -0.54731 96 72 67
-0.0938567 -0.510285 -0.548226 55 36 29
-0.0777103 -0.51128 -0.562592 100 80 71
-0.072103 -0.52167 -0.567522 80 77 89
-0.0695432 -0.5353 -0.56972 80 77 89
-0.0680197 -0.550464 -0.570987 65 75 100
-0.0673247 -0.567155 -0.571507 81 79 90
-0.0889259 -0.352452 -0.538807 87 59 54
-0.0864961 -0.362667 -0.540814 97 69 64
-0.0882552 -0.374633 -0.538826 97 69 64
-0.0901686 -0.387211 -0.536675 96 72 67
-0.0865798 -0.397744 -0.539765 94 66 60
-0.0844792 -0.409132 -0.541429 92 63 57
-0.0831276 -0.42118 -0.542369 83 51 41
-0.0818326 -0.433583 -0.543246 83 51 41
-0.0788347 -0.445155 -0.54575 73 40 30
-0.0773465 -0.45802 -0.546796 53 26 11
-0.075747 -0.47115 -0.54794 90 64 53
-0.0726828 -0.48337 -0.550488 93 77 72
-0.0688227 -0.495041 -0.553802 93 77 72
-0.0665232 -0.508374 -0.5556 78 72 78
-0.0672451 -0.525268 -0.554452 63 65 80
-0.0659417 -0.540631 -0.555255 74 69 78
-0.0659851 -0.558167 -0.554729 74 69 78
-0.0836566 -0.342563 -0.529137 81 54 49
-0.0784091 -0.351746 -0.533903 81 54 49
-0.0770499 -0.362177 -0.534731 119 87 82
-0.0804177 -0.374724 -0.530743 119 87 82
-0.0758271 -0.421609 -0.532952 69 45 38
-0.0727138 -0.432877 -0.535487 92 59 51
-0.0680098 -0.443157 -0.539656 80 47 36
-0.0654379 -0.455048 -0.541619 73 40 30
-0.061756 -0.466238 -0.544723 90 64 53
-0.0616849 -0.480775 -0.544061 68 35 24
-0.0620087 -0.496284 -0.542956 66 36 27
-0.0629719 -0.513139 -0.541146 61 37 30
-0.0627432 -0.52949 -0.54055 59 38 34
-0.064999 -0.549482 -0.537293 68 40 30
-0.0670753 -0.570383 -0.53417 71 46 34
-0.0755397 -0.342615 -0.522071 81 54 49
-0.070698 -0.351843 -0.526486 81 54 49
-0.0694578 -0.362291 -0.527016 119 87 82
-0.0676038 -0.463094 -0.521481 105 82 74
-0.0622731 -0.473489 -0.526325 68 35 24
-0.0592249 -0.485918 -0.528613 85 54 44
-0.0580427 -0.500438 -0.52878 85 54 44
-0.0594135 -0.518216 -0.526015 78 51 45
-0.0614449 -0.53769 -0.522428 73 45 34
-0.139353 -0.424455 -0.647215 95 75 66
-0.13204 -0.413781 -0.636136 31 35 36
-0.127969 -0.423574 -0.640407 53 42 33
-0.127 -0.434808 -0.643453 70 60 46
-0.127293 -0.446871 -0.646055 69 57 46
-0.127299 -0.459042 -0.648826 33 36 40
-0.128857 -0.382311 -0.618524 19 25 29
-0.125723 -0.392353 -0.622383 15 25 31
-0.125023 -0.40334 -0.625143 15 25 31
-0.123837 -0.414299 -0.628157 31 35 36
-0.120884 -0.448408 -0.637143 82 71 61
-0.121208 -0.460887 -0.639678 33 36 40
-0.119584 -0.472449 -0.643057 39 53 64
-0.130403 -0.5483 -0.653726 60 42 36
-0.136899 -0.568831 -0.654703 75 55 49
-0.126247 -0.574338 -0.661604 86 69 62
-0.104738 -0.568519 -0.671863 106 77 66
-0.131909 -0.375138 -0.602723 57 31 31
-0.117687 -0.381834 -0.612235 29 44 57
-0.115023 -0.391927 -0.615835 16 24 29
-0.115585 -0.403343 -0.617863 38 35 29
-0.118419 -0.416031 -0.618852 38 35 29
-0.119227 -0.428216 -0.620897 56 45 41
-0.11765 -0.439487 -0.624118 56 45 41
-0.115418 -0.450528 -0.627667 83 73 67
-0.114595 -0.462496 -0.6306 34 49 61
-0.113313 -0.474377 -0.633777 34 49 61
-0.132096 -0.543259 -0.637208 60 42 36
-0.142346 -0.567175 -0.636267 132 92 67
-0.134707 -0.576101 -0.642472 75 55 49
-0.121 -0.578812 -0.650869 75 55 49
-0.0951793 -0.568246 -0.663462 121 91 69
-0.123195 -0.37556 -0.594926 57 31 31
-0.110549 -0.382647 -0.604013 29 44 57
-0.109989 -0.393557 -0.60647 16 24 29
-0.111897 -0.405681 -0.607657 30 32 33
-0.114322 -0.418432 -0.608651 30 32 33
-0.114774 -0.43066 -0.610747 55 50 49
-0.113519 -0.44228 -0.613765 62 55 52
-0.112018 -0.453928 -0.616939 62 55 52
-0.110477 -0.465706 -0.620163 34 49 61
-0.109682 -0.478132 -0.623058 52 74 89
-0.108051 -0.490197 -0.626392 52 74 89
-0.149652 -0.566638 -0.615847 115 83 63
-0.139884 -0.574379 -0.623304 132 92 67
-0.110992 -0.578802 -0.641781 101 72 59
-0.0878215 -0.570216 -0.654246 114 85 64
-0.111559 -0.37506 -0.588917 12 21 30
-0.107555 -0.384918 -0.593307 13 20 25
-0.10729 -0.39616 -0.595519 13 20 25
-0.109621 -0.408735 -0.596288 26 27 29
-0.112235 -0.421887 -0.596978 45 37 34
-0.112919 -0.434541 -0.59883 45 37 34
-0.111734 -0.446504 -0.601772 62 55 52
-0.109327 -0.457929 -0.60541 62 55 52
-0.107477 -0.469796 -0.608765 51 56 60
-0.107883 -0.48334 -0.61096 44 66 82
-0.106501 -0.495935 -0.614144 44 66 82
-0.15759 -0.566068 -0.593691 83 42 21
-0.147211 -0.574087 -0.601888 115 83 63
-0.133207 -0.578128 -0.611718 96 76 66
-0.117674 -0.579648 -0.622083 95 70 59
-0.0892817 -0.566697 -0.638174 110 82 65
-0.08402 -0.576133 -0.643304 114 85 64
-0.111008 -0.378047 -0.576161 15 22 26
-0.104913 -0.38743 -0.581955 15 22 26
-0.105718 -0.399346 -0.583407 15 22 26
-0.108421 -0.412426 -0.583742 26 27 29
-0.116299 -0.428495 -0.581006 30 21 17
-0.114008 -0.440182 -0.584559 32 30 28
-0.113804 -0.453157 -0.586886 44 37 35
-0.110676 -0.46463 -0.590982 49 43 41
-0.108477 -0.47675 -0.594545 63 85 99
-0.110325 -0.491845 -0.595811 63 85 99
-0.147075 -0.566873 -0.583055 86 52 35
-0.135651 -0.573761 -0.592112 86 61 47
-0.122147 -0.577896 -0.602142 96 76 66
-0.103554 -0.575869 -0.614652 79 62 56
-0.0827958 -0.569908 -0.627995 110 82 65
-0.110052 -0.381065 -0.562995 15 22 26
-0.107119 -0.391879 -0.566826 15 22 26
-0.111995 -0.405956 -0.565423 29 33 34
-0.123462 -0.464678 -0.566091 97 61 35
-0.116968 -0.474878 -0.572443 46 42 40
-0.129108 -0.497504 -0.567027 90 59 37
-0.133666 -0.516134 -0.566563 68 36 25
-0.135867 -0.567067 -0.572834 56 35 27
-0.125196 -0.574389 -0.58181 86 61 47
-0.102894 -0.569475 -0.597438 68 49 41
-0.0825735 -0.564578 -0.611613 79 76 88
-0.08206 -0.57966 -0.614327 92 76 73
-0.110052 -0.384583 -0.548424 27 35 38
-0.135443 -0.478374 -0.54178 94 55 24
-0.127162 -0.488361 -0.549651 90 59 37
-0.125514 -0.502604 -0.552939 90 59 37
-0.138039 -0.561771 -0.551476 68 48 40
-0.126044 -0.568483 -0.561784 56 35 27
-0.113926 -0.574214 -0.572053 48 33 31
-0.0777417 -0.55431 -0.597508 119 91 68
-0.07828 -0.570514 -0.599366 79 76 88
-0.095169 -0.359686 -0.541733 87 59 54
-0.0909413 -0.369872 -0.546516 97 69 64
-0.0920196 -0.381873 -0.547128 96 72 67
-0.124739 -0.543137 -0.540231 71 58 54
-0.110696 -0.547817 -0.552463 50 37 37
-0.0830047 -0.538435 -0.574246 92 65 57
-0.0725637 -0.543667 -0.58356 92 65 57
-0.0748975 -0.561724 -0.58389 65 73 96
-0.0879706 -0.408753 -0.537836 69 45 38
-0.0829335 -0.419004 -0.543392 69 45 38
-0.0818043 -0.457959 -0.548654 53 26 11
-0.0871253 -0.475592 -0.545903 55 29 17
-0.0851073 -0.488602 -0.549105 72 49 37
-0.0823929 -0.501226 -0.552877 72 49 37
-0.0774022 -0.511982 -0.558448 100 80 71
-0.0711799 -0.52145 -0.564962 100 80 71
-0.0692464 -0.534843 -0.568131 80 77 89
-0.0700348 -0.551294 -0.569239 65 75 100
-0.072362 -0.570013 -0.569242 81 79 90
-0.0777391 -0.421458 -0.531663 69 45 38
-0.0772973 -0.434336 -0.53327 92 59 51
-0.0726187 -0.44487 -0.538617 80 47 36
-0.0694475 -0.456304 -0.542639 73 40 30
-0.0690174 -0.469782 -0.544292 90 64 53
-0.0692998 -0.48416 -0.545362 93 77 72
-0.0690028 -0.498485 -0.546969 93 77 72
-0.0681466 -0.512691 -0.549086 78 72 78
-0.0672097 -0.527155 -0.551304 63 65 80
-0.0667945 -0.542496 -0.553115 74 69 78
-0.0717688 -0.564129 -0.550477 91 67 55
-0.0684139 -0.462452 -0.526467 68 35 24
-0.0629266 -0.472603 -0.532665 68 35 24
-0.0608791 -0.485356 -0.53565 66 36 27
-0.0624267 -0.501451 -0.535325 85 54 44
-0.0630749 -0.517331 -0.535875 78 51 45
-0.0641818 -0.534219 -0.536046 59 38 34
-0.0684747 -0.55514 -0.533364 68 40 30
-0.0709468 -0.575084 -0.532412 71 46 34
-0.148733 -0.452265 -0.645321 90 77 60
-0.13837 -0.460031 -0.651696 33 36 40
-0.171819 -0.42655 -0.615446 75 75 62
-0.160099 -0.43519 -0.622944 95 102 83
-0.150033 -0.444003 -0.629597 92 84 73
-0.138021 -0.45133 -0.637048 90 77 60
-0.133215 -0.46196 -0.641209 33 36 40
-0.133939 -0.475785 -0.642948 95 83 69
-0.143569 -0.393985 -0.611877 42 31 26
-0.136441 -0.403766 -0.617273 31 35 36
-0.149211 -0.421304 -0.612547 63 55 46
-0.155348 -0.437206 -0.611329 87 88 73
-0.140242 -0.443656 -0.620752 92 84 73
-0.128045 -0.45071 -0.62862 82 71 61
-0.12369 -0.461501 -0.632595 66 63 57
-0.119548 -0.472371 -0.636462 39 53 64
-0.156962 -0.575257 -0.629873 132 92 67
-0.141081 -0.578323 -0.639256 130 92 69
-0.142461 -0.384248 -0.597249 40 33 27
-0.127134 -0.391492 -0.607405 19 25 29
-0.121228 -0.401369 -0.612225 27 31 32
-0.119693 -0.412876 -0.614621 27 31 32
-0.120953 -0.425823 -0.615519 59 55 53
-0.118483 -0.437323 -0.618477 56 45 41
-0.115191 -0.448482 -0.621887 83 73 67
-0.110715 -0.458984 -0.625926 83 73 67
-0.110125 -0.471858 -0.627928 34 49 61
-0.107929 -0.483934 -0.630795 52 74 89
-0.161511 -0.570355 -0.609584 115 73 46
-0.145494 -0.574084 -0.619706 132 92 67
-0.131036 -0.578053 -0.62892 94 76 67
-0.128759 -0.382867 -0.591384 57 31 31
-0.118096 -0.391393 -0.599209 13 20 25
-0.113479 -0.401693 -0.603353 30 32 33
-0.112893 -0.41363 -0.605095 30 32 33
-0.112432 -0.425877 -0.606791 55 50 49
-0.109938 -0.437356 -0.609706 55 50 49
-0.106835 -0.448601 -0.612985 62 55 52
-0.103337 -0.45966 -0.616497 51 56 60
-0.101339 -0.471707 -0.619158 42 63 79
-0.098926 -0.483627 -0.622071 55 74 86
-0.131318 -0.570379 -0.611178 96 76 66
-0.118779 -0.575635 -0.619835 95 70 59
-0.105615 -0.579347 -0.628717 95 70 59
-0.121007 -0.383264 -0.582145 57 31 31
-0.11232 -0.39243 -0.58901 13 20 25
-0.108496 -0.403115 -0.592698 26 27 29
-0.106626 -0.414643 -0.595133 26 27 29
-0.10606 -0.426951 -0.596752 45 37 34
-0.104846 -0.43919 -0.598809 45 37 34
-0.101692 -0.450544 -0.602105 82 69 63
-0.0979667 -0.461598 -0.605762 77 67 63
-0.0955213 -0.473505 -0.608629 51 57 62
-0.0932221 -0.485643 -0.611418 55 74 86
-0.120998 -0.569985 -0.600844 96 76 66
-0.108719 -0.575193 -0.609773 79 62 56
-0.0933557 -0.576268 -0.620399 110 82 65
-0.114427 -0.384045 -0.572064 15 22 26
-0.108775 -0.394327 -0.57706 15 22 26
-0.105479 -0.405408 -0.580407 18 21 22
-0.109383 -0.419781 -0.578786 30 21 17
-0.108656 -0.44595 -0.581546 32 30 28
-0.10241 -0.456046 -0.586959 44 37 35
-0.101808 -0.469516 -0.588546 49 43 41
-0.130808 -0.519746 -0.571688 68 36 25
-0.134436 -0.556356 -0.572164 59 31 17
-0.123315 -0.564047 -0.580925 56 35 27
-0.0954542 -0.571438 -0.601863 72 65 70
-0.0849976 -0.577156 -0.609972 92 76 73
-0.109692 -0.385474 -0.560457 27 35 38
-0.106703 -0.396879 -0.563568 15 22 26
-0.113076 -0.467932 -0.563572 46 42 40
-0.115437 -0.484367 -0.562886 1 1 1
-0.126702 -0.558643 -0.559322 59 31 17
-0.114292 -0.565056 -0.569389 48 33 31
-0.0901121 -0.558881 -0.587705 119 91 68
-0.0826104 -0.567837 -0.594144 72 65 70
-0.119095 -0.543462 -0.545176 71 58 54
-0.107973 -0.551122 -0.554747 50 37 37
-0.0841581 -0.54576 -0.574084 102 78 72
-0.0796739 -0.55783 -0.57842 102 78 72
-0.076266 -0.571033 -0.58193 65 73 96
-0.0913344 -0.361297 -0.54296 87 59 54
-0.0904702 -0.372902 -0.544134 97 69 64
-0.091708 -0.385502 -0.543504 96 72 67
-0.0918482 -0.496588 -0.547376 72 49 37
-0.0865586 -0.508065 -0.552417 55 36 29
-0.0836559 -0.5215 -0.55544 55 36 29
-0.0794789 -0.533894 -0.559541 96 74 65
-0.0760617 -0.547048 -0.563004 65 75 100
-0.0718725 -0.559479 -0.567117 65 75 100
-0.0876928 -0.351012 -0.529953 81 54 49
-0.0824374 -0.361321 -0.535019 87 59 54
-0.08597 -0.37433 -0.531969 97 69 64
-0.0791387 -0.409283 -0.538937 69 45 38
-0.0733504 -0.419411 -0.544495 69 45 38
-0.0719429 -0.43181 -0.546023 83 51 41
-0.0721048 -0.445424 -0.546115 73 40 30
-0.0718269 -0.45917 -0.546618 73 40 30
-0.0727127 -0.47416 -0.546062 90 64 53
-0.0739214 -0.489954 -0.545221 93 77 72
-0.0738907 -0.505314 -0.545523 78 72 78
-0.0749456 -0.522152 -0.544843 63 65 80
-0.0722551 -0.536008 -0.547589 63 65 80
-0.0684889 -0.548946 -0.551318 74 69 78
-0.0694684 -0.567182 -0.550733 91 67 55
-0.0781698 -0.362661 -0.522647 119 87 82
-0.0646145 -0.432621 -0.535917 92 59 51
-0.0643207 -0.446074 -0.536189 80 47 36
-0.0615783 -0.458215 -0.538876 80 47 36
-0.0584944 -0.470226 -0.5419 68 35 24
-0.0606779 -0.486621 -0.539726 66 36 27
-0.0631122 -0.503988 -0.537304 61 37 30
-0.0631418 -0.519912 -0.537254 79 55 49
-0.0627469 -0.535953 -0.537623 59 38 34
-0.0637806 -0.554045 -0.53658 80 48 35
-0.0603001 -0.493891 -0.521245 85 54 44
-0.0607927 -0.510236 -0.520379 78 51 45
-0.140232 -0.42036 -0.640317 95 75 66
-0.138752 -0.431552 -0.642172 71 60 47
-0.138106 -0.443458 -0.643445 90 77 60
-0.139874 -0.45718 -0.643017 90 77 60
-0.147836 -0.475599 -0.638227 95 83 69
-0.129613 -0.5489 -0.656808 60 42 36
-0.126236 -0.56139 -0.66018 60 42 36
-0.123121 -0.574339 -0.663383 86 69 62
-0.111174 -0.576957 -0.672567 106 77 66
-0.148804 -0.415757 -0.61891 63 55 46
-0.130227 -0.419078 -0.633915 31 35 36
-0.128338 -0.429998 -0.635941 53 42 33
-0.1278 -0.441913 -0.636935 70 60 46
-0.13378 -0.458306 -0.63293 82 71 61
-0.135303 -0.472689 -0.632393 66 63 57
-0.139162 -0.489415 -0.630101 96 83 67
-0.147215 -0.510373 -0.624656 46 49 48
-0.134439 -0.562906 -0.637351 60 42 36
-0.13333 -0.578851 -0.638992 94 76 67
-0.11871 -0.579545 -0.65071 101 72 59
-0.100827 -0.574824 -0.664779 121 91 69
-0.133902 -0.389295 -0.615373 19 25 29
-0.127839 -0.398206 -0.620752 15 25 31
-0.129603 -0.410505 -0.619598 31 35 36
-0.124076 -0.419677 -0.624531 31 35 36
-0.12576 -0.432687 -0.623465 53 42 33
-0.126564 -0.445744 -0.623144 82 71 61
-0.12416 -0.457221 -0.625496 82 71 61
-0.124681 -0.470962 -0.625435 66 63 57
-0.121934 -0.482748 -0.628086 77 85 87
-0.127781 -0.501759 -0.623661 46 49 48
-0.147492 -0.568569 -0.608819 115 83 63
-0.140623 -0.579421 -0.614934 115 83 63
-0.109223 -0.579025 -0.641507 101 72 59
-0.091153 -0.573416 -0.65665 114 85 64
-0.125998 -0.377915 -0.607403 29 44 57
-0.119307 -0.386479 -0.613461 16 24 29
-0.115192 -0.395886 -0.617215 16 25 31
-0.115803 -0.407496 -0.616746 38 35 29
-0.118328 -0.420539 -0.614572 59 55 53
-0.118603 -0.43296 -0.614411 59 55 53
-0.118395 -0.445537 -0.614683 62 55 52
-0.116416 -0.457349 -0.616539 62 55 52
-0.115477 -0.470176 -0.617468 51 56 60
-0.113473 -0.482552 -0.619351 44 66 82
-0.112926 -0.496447 -0.619936 52 74 89
-0.139299 -0.570316 -0.596796 86 61 47
-0.131165 -0.579838 -0.604154 96 76 66
-0.0954943 -0.573146 -0.636092 110 82 65
-0.0857094 -0.577586 -0.644896 114 85 64
-0.113766 -0.376102 -0.603884 29 44 57
-0.109682 -0.385446 -0.607621 16 24 29
-0.109218 -0.39635 -0.607897 16 24 29
-0.110499 -0.408434 -0.606498 30 32 33
-0.113264 -0.421841 -0.603671 55 50 49
-0.113176 -0.434286 -0.603567 55 50 49
-0.112622 -0.446874 -0.603902 62 55 52
-0.109886 -0.458355 -0.606327 62 55 52
-0.107402 -0.47021 -0.608507 51 56 60
-0.106062 -0.483222 -0.609582 44 66 82
-0.104905 -0.496776 -0.610477 44 66 82
-0.128985 -0.569933 -0.58651 86 61 47
-0.119454 -0.577713 -0.595441 68 49 41
-0.104728 -0.578432 -0.609413 79 62 56
-0.0842329 -0.570043 -0.628999 110 82 65
-0.108878 -0.37679 -0.593454 12 21 30
-0.106616 -0.386992 -0.595338 13 20 25
-0.105128 -0.397706 -0.596423 13 20 25
-0.106006 -0.409856 -0.595075 26 27 29
-0.108959 -0.423667 -0.591577 45 37 34
-0.109133 -0.436561 -0.590908 45 37 34
-0.109764 -0.450257 -0.589749 44 37 35
-0.106411 -0.461658 -0.592683 49 43 41
-0.101528 -0.471991 -0.597197 235 224 205
-0.132166 -0.547038 -0.563519 59 31 17
-0.124357 -0.557283 -0.570977 59 31 17
-0.115173 -0.56561 -0.579892 68 49 41
-0.104314 -0.571313 -0.59059 68 49 41
-0.0804462 -0.559369 -0.615045 121 91 62
-0.0813316 -0.578158 -0.613435 92 76 73
-0.108138 -0.379046 -0.578134 15 22 26
-0.105044 -0.389269 -0.580786 15 22 26
-0.103843 -0.400469 -0.58136 15 22 26
-0.115323 -0.418523 -0.568 20 16 15
-0.113806 -0.458645 -0.567091 46 42 40
-0.10812 -0.469106 -0.572487 46 42 40
-0.110358 -0.485873 -0.569049 1 1 1
-0.112172 -0.536898 -0.563906 64 30 11
-0.0775135 -0.549731 -0.599999 104 78 62
-0.0735661 -0.562007 -0.603429 104 78 62
-0.113358 -0.383699 -0.554868 27 35 38
-0.109675 -0.394358 -0.558071 27 35 38
-0.10582 -0.522742 -0.550983 55 31 20
-0.0732825 -0.53841 -0.586278 92 65 57
-0.0696735 -0.55113 -0.589214 80 75 85
-0.0716468 -0.5719 -0.585139 65 73 96
-0.0880385 -0.497799 -0.553248 72 49 37
-0.0780563 -0.504047 -0.564443 100 80 71
-0.0668108 -0.54154 -0.573494 65 75 100
-0.0682417 -0.561524 -0.569449 81 79 90
-0.0890603 -0.368606 -0.549557 97 69 64
-0.0899037 -0.380436 -0.546756 96 72 67
-0.0890894 -0.392057 -0.546084 96 72 67
-0.0911602 -0.405552 -0.541485 94 66 60
-0.0814314 -0.45376 -0.546737 53 26 11
-0.0788177 -0.466354 -0.548201 55 29 17
-0.0754852 -0.478579 -0.550629 90 64 53
-0.0701198 -0.488979 -0.555897 93 77 72
-0.0657534 -0.500334 -0.559761 99 79 67
-0.0643294 -0.532324 -0.556876 63 65 80
-0.0639927 -0.549935 -0.554722 74 69 78
-0.0684355 -0.575359 -0.545372 91 67 55
-0.0818582 -0.357451 -0.542441 87 59 54
-0.0794451 -0.367729 -0.543849 97 69 64
-0.0781192 -0.378639 -0.543684 96 72 67
-0.076965 -0.389948 -0.543218 94 66 60
-0.075551 -0.401476 -0.543062 94 66 60
-0.0744265 -0.413525 -0.542424 69 45 38
-0.0717136 -0.424932 -0.544033 83 51 41
-0.0716479 -0.438493 -0.541704 92 59 51
-0.0697467 -0.451194 -0.541993 73 40 30
-0.067606 -0.464066 -0.542572 90 64 53
-0.0654758 -0.477319 -0.54307 90 64 53
-0.0652317 -0.492934 -0.540615 66 36 27
-0.0651176 -0.509455 -0.537824 61 37 30
-0.0642117 -0.525852 -0.536118 79 55 49
-0.0657206 -0.546182 -0.53047 68 40 30
-0.0843262 -0.349118 -0.521563 81 54 49
-0.0765741 -0.357978 -0.530722 81 54 49
-0.0760218 -0.369115 -0.529146 119 87 82
-0.0639962 -0.425142 -0.534386 92 59 51
-0.0601387 -0.436 -0.537576 92 59 51
-0.0626604 -0.452288 -0.53053 80 47 36
-0.0622577 -0.466988 -0.527986 68 35 24
-0.0626871 -0.483214 -0.523932 66 36 27
-0.138748 -0.424094 -0.642257 95 75 66
-0.137324 -0.43555 -0.644259 70 60 46
-0.137042 -0.447963 -0.644971 69 57 46
-0.142812 -0.464772 -0.638823 95 83 69
-0.147942 -0.482256 -0.633437 96 83 67
-0.130965 -0.543457 -0.654964 60 42 36
-0.12571 -0.554052 -0.661367 60 42 36
-0.120617 -0.564718 -0.667586 86 69 62
-0.115297 -0.574995 -0.674056 106 77 66
-0.144548 -0.406534 -0.616436 63 55 46
-0.131832 -0.412944 -0.632015 31 35 36
-0.128539 -0.423295 -0.636096 53 42 33
-0.127316 -0.434895 -0.637651 53 42 33
-0.129226 -0.448764 -0.635387 82 71 61
-0.138276 -0.468222 -0.624425 66 63 57
-0.139627 -0.483531 -0.622852 96 83 67
-0.145626 -0.503323 -0.615622 46 49 48
-0.144826 -0.518529 -0.616678 78 55 40
-0.127945 -0.551622 -0.637489 60 42 36
-0.120177 -0.559863 -0.647029 60 42 36
-0.110452 -0.565155 -0.658946 101 72 59
-0.0999875 -0.568592 -0.671757 121 91 69
-0.131491 -0.381509 -0.613908 19 25 29
-0.12594 -0.390811 -0.620881 15 25 31
-0.121956 -0.400607 -0.625815 15 25 31
-0.122866 -0.412739 -0.624362 31 35 36
-0.12477 -0.425932 -0.621599 59 55 53
-0.125034 -0.438822 -0.620965 56 45 41
-0.123737 -0.451205 -0.622364 82 71 61
-0.126047 -0.466519 -0.619027 52 59 67
-0.127029 -0.481632 -0.617413 50 41 36
-0.13349 -0.502099 -0.608587 46 49 48
-0.111922 -0.563009 -0.635122 95 70 59
-0.0899273 -0.56893 -0.663453 121 91 69
-0.132084 -0.36167 -0.594315 57 31 31
-0.127266 -0.371453 -0.600407 57 31 31
-0.118594 -0.379845 -0.61186 29 44 57
-0.115377 -0.389859 -0.615744 16 24 29
-0.113869 -0.400696 -0.61724 16 25 31
-0.115674 -0.413451 -0.614092 30 32 33
-0.116572 -0.426363 -0.612179 55 50 49
-0.116059 -0.438993 -0.612217 55 50 49
-0.115274 -0.451885 -0.612614 62 55 52
-0.115404 -0.465904 -0.611696 51 56 60
-0.115744 -0.480687 -0.61045 44 66 82
-0.115641 -0.495738 -0.609796 44 66 82
-0.145943 -0.55958 -0.564865 88 54 31
-0.101413 -0.563655 -0.62573 96 64 54
-0.0833218 -0.574527 -0.649971 114 85 64
-0.114536 -0.369988 -0.59827 12 21 30
-0.111989 -0.380298 -0.601097 29 44 57
-0.109815 -0.390901 -0.603356 16 24 29
-0.108678 -0.402178 -0.604049 30 32 33
-0.109594 -0.414854 -0.601633 30 32 33
-0.110055 -0.427866 -0.599852 45 37 34
-0.109558 -0.440838 -0.599469 44 37 35
-0.107515 -0.453192 -0.601388 62 55 52
-0.104885 -0.465386 -0.604176 51 56 60
-0.105106 -0.480267 -0.602583 63 85 99
-0.129618 -0.555439 -0.560493 59 31 17
-0.117918 -0.561316 -0.577021 59 31 17
-0.0890924 -0.561968 -0.618919 96 64 54
-0.130217 -0.365008 -0.553238 119 85 59
-0.112921 -0.371876 -0.579158 12 21 30
-0.106347 -0.381182 -0.588201 12 21 30
-0.105487 -0.392599 -0.588152 13 20 25
-0.105291 -0.40471 -0.586993 26 27 29
-0.102851 -0.457017 -0.584452 49 43 41
-0.0972966 -0.467302 -0.5918 49 43 41
-0.12597 -0.545637 -0.537996 71 58 54
-0.112255 -0.549698 -0.558717 57 36 29
-0.100103 -0.554141 -0.576974 102 78 72
-0.0826027 -0.549928 -0.604548 104 78 62
-0.103566 -0.383275 -0.569508 15 22 26
-0.103809 -0.395668 -0.567133 15 22 26
-0.105006 -0.536178 -0.542771 64 56 57
-0.0933084 -0.541379 -0.561195 96 74 65
-0.0823473 -0.546218 -0.578464 102 78 72
-0.0915707 -0.515766 -0.53894 46 38 41
-0.0799936 -0.520688 -0.558261 100 80 71
-0.0701863 -0.526541 -0.574289 80 77 89
-0.0830549 -0.483319 -0.530846 32 16 12
-0.0758288 -0.493202 -0.541937 93 77 72
-0.0675304 -0.501316 -0.555477 99 79 67
-0.0698325 -0.464468 -0.530341 68 35 24
-0.0624177 -0.473615 -0.542478 68 35 24
-0.168617 -0.428885 -0.613854 75 75 62
-0.16183 -0.43899 -0.623671 95 102 83
-0.158721 -0.451205 -0.628 94 86 75
-0.154599 -0.46268 -0.633843 101 89 75
-0.157172 -0.479645 -0.629657 96 83 67
-0.16746 -0.575319 -0.612297 115 73 46
-0.150149 -0.571827 -0.637991 132 92 67
-0.141198 -0.577683 -0.651106 130 92 69
-0.142694 -0.4198 -0.629917 81 74 67
-0.145266 -0.435019 -0.625099 107 99 83
-0.140416 -0.445618 -0.632226 92 84 73
-0.140359 -0.459852 -0.631607 66 63 57
-0.141125 -0.4753 -0.629629 101 89 75
-0.146786 -0.496098 -0.619658 46 49 48
-0.147629 -0.513348 -0.617468 78 55 40
-0.136377 -0.56971 -0.632416 94 76 67
-0.130647 -0.579821 -0.640957 94 76 67
-0.141208 -0.38489 -0.610394 42 31 26
-0.135587 -0.395118 -0.619055 15 25 31
-0.12933 -0.40466 -0.628845 31 35 36
-0.128586 -0.417202 -0.629094 31 35 36
-0.126953 -0.429469 -0.630866 53 42 33
-0.124812 -0.441573 -0.633505 82 71 61
-0.123416 -0.454474 -0.634826 82 71 61
-0.123598 -0.469142 -0.633344 66 63 57
-0.132143 -0.492921 -0.617025 50 41 36
-0.134339 -0.511747 -0.611812 46 49 48
-0.13703 -0.569317 -0.602658 96 76 66
-0.128183 -0.575769 -0.617063 96 76 66
-0.105511 -0.576838 -0.655219 101 72 59
-0.123626 -0.381331 -0.616391 19 25 29
-0.120092 -0.392098 -0.621551 16 25 31
-0.118151 -0.403728 -0.623735 38 35 29
-0.117054 -0.416086 -0.624311 38 35 29
-0.110714 -0.452359 -0.63164 83 73 67
-0.110503 -0.466701 -0.630389 34 49 61
-0.112586 -0.484084 -0.624647 52 74 89
-0.142135 -0.554549 -0.563232 72 41 18
-0.137931 -0.56912 -0.56917 56 35 27
-0.125327 -0.571103 -0.59172 86 61 47
-0.116438 -0.577134 -0.607096 79 62 56
-0.0949285 -0.578651 -0.645794 114 85 64
-0.112201 -0.38031 -0.61202 29 44 57
-0.110646 -0.392074 -0.613257 16 24 29
-0.109246 -0.404171 -0.614144 30 32 33
-0.099843 -0.46661 -0.622951 42 63 79
-0.100888 -0.483252 -0.618404 44 66 82
-0.131288 -0.558344 -0.548025 68 48 40
-0.126403 -0.572278 -0.5554 68 48 40
-0.114467 -0.574663 -0.578209 68 49 41
-0.104233 -0.57805 -0.597564 68 49 41
-0.0934903 -0.578829 -0.618302 92 76 73
-0.103644 -0.380657 -0.601644 29 44 57
-0.102655 -0.392963 -0.601333 16 24 29
-0.11579 -0.555966 -0.542325 71 58 54
-0.109459 -0.567345 -0.553368 55 34 29
-0.0993994 -0.571605 -0.573588 48 33 31
-0.0900292 -0.575487 -0.592439 72 65 70
-0.101463 -0.371283 -0.578394 12 21 30
-0.0984396 -0.382884 -0.582437 13 20 25
-0.104753 -0.539025 -0.53052 64 56 57
-0.0968437 -0.547724 -0.546316 52 39 38
-0.0908233 -0.55868 -0.557294 52 39 38
-0.082916 -0.565414 -0.57356 81 79 90
-0.087229 -0.512459 -0.537915 46 38 41
-0.081181 -0.523105 -0.549628 50 37 36
-0.0759377 -0.534535 -0.559132 96 74 65
-0.0732951 -0.550585 -0.560884 65 75 100
-0.0724438 -0.570852 -0.556991 91 67 55
-0.0945473 -0.349681 -0.532078 87 59 54
-0.0894996 -0.361264 -0.541461 87 59 54
-0.0854482 -0.373031 -0.548108 97 69 64
-0.0833051 -0.385812 -0.549279 96 72 67
-0.0800673 -0.398077 -0.553568 94 66 60
-0.0789142 -0.412088 -0.551647 92 63 57
-0.0796818 -0.42843 -0.543746 83 51 41
-0.0793411 -0.444647 -0.538859 73 40 30
-0.0759648 -0.45809 -0.543098 53 26 11
-0.0727806 -0.471868 -0.546702 90 64 53
-0.0703766 -0.486946 -0.547751 93 77 72
-0.0674382 -0.501549 -0.550402 78 72 78
-0.0667948 -0.520553 -0.545329 63 65 80
-0.0649719 -0.538323 -0.543858 63 65 80
-0.0650313 -0.560949 -0.535608 80 48 35
-0.082851 -0.348996 -0.525 81 54 49
-0.0796616 -0.361353 -0.529058 81 54 49
-0.076996 -0.374043 -0.531434 119 87 82
-0.0749608 -0.387315 -0.531706 94 66 60
-0.0705281 -0.399075 -0.539675 94 66 60
-0.0680513 -0.41235 -0.541243 69 45 38
-0.0677089 -0.42808 -0.535484 92 59 51
-0.0658514 -0.442925 -0.534558 80 47 36
-0.0637597 -0.457976 -0.534232 80 47 36
-0.0607597 -0.472178 -0.536939 68 35 24
-0.0580774 -0.487134 -0.538389 66 36 27
-0.0570184 -0.505428 -0.533633 78 51 45
-0.0568996 -0.526665 -0.524848 79 55 49
-0.176013 -0.426001 -0.597389 81 71 56
-0.176548 -0.437125 -0.598276 81 71 56
-0.178504 -0.448977 -0.59664 84 75 60
-0.178184 -0.460109 -0.599122 83 74 57
-0.155981 -0.413339 -0.610793 63 55 46
-0.1566 -0.423739 -0.61122 81 63 42
