ply
format ascii 1.0
comment Created by Open3D
element vertex 1167
property double x
property double y
property double z
property uchar red
property uchar green
property uchar blue
end_header
0.0566638 0.0650804 -0.616088 148 134 108
0.0546564 0.0740758 -0.611423 148 133 107
0.051933 0.08196 -0.606576 151 133 106
0.182323 -0.114317 -0.483361 230 223 207
0.0943898 0.0287138 -0.634607 153 141 120
0.0497972 0.0908307 -0.602748 151 133 106
0.0473398 0.128584 -0.464273 182 175 160
0.109768 -0.0095949 -0.55956 191 181 163
0.0479658 0.100144 -0.599449 165 148 121
0.0443121 0.118728 -0.592867 160 143 116
0.0488031 0.0100517 -0.564051 158 138 108
0.0440675 0.140637 -0.592225 154 136 110
0.0444741 0.161974 -0.59273 159 142 115
0.110185 0.0398725 -0.545013 205 199 187
0.105978 0.302311 -0.542499 145 130 109
0.178127 -0.0572101 -0.495405 201 193 179
0.0449899 0.182163 -0.593437 168 153 127
0.202347 -0.218851 -0.581604 196 196 185
0.197795 0.0418268 -0.583757 153 137 113
0.0438068 0.200004 -0.592639 169 154 129
0.0447311 0.235578 -0.592463 169 155 132
0.0400606 0.258984 -0.584053 149 135 109
-0.00118169 0.255979 -0.516544 178 166 146
0.0500158 0.141284 -0.581793 154 136 110
-0.00453317 -0.161492 -0.567445 117 112 101
0.185258 0.0510769 -0.562912 213 205 190
0.0617388 0.0158939 -0.643873 169 160 141
-0.0223173 -0.0112092 -0.582898 183 175 163
0.0608314 0.0268266 -0.642019 169 160 141
0.000894919 0.209083 -0.476695 184 176 160
0.0298763 0.0546037 -0.646432 149 135 109
0.0666157 -0.188396 -0.666767 134 132 123
0.0570075 0.0442968 -0.635166 170 158 135
0.169177 -0.0395415 -0.486314 234 230 220
0.0538352 0.0528703 -0.630058 143 129 103
0.0966302 -0.171357 -0.632231 118 108 88
0.0432813 0.147903 -0.586531 154 136 110
0.0509105 0.0579616 -0.624714 148 134 108
0.0411158 0.0772078 -0.607855 149 129 103
0.0379696 0.0868441 -0.602535 149 129 103
0.149905 -0.0458888 -0.501715 171 151 125
0.034669 0.0945408 -0.596867 156 145 125
0.0878816 0.255695 -0.423638 181 177 166
0.118572 0.177 -0.540363 134 117 94
0.0309953 0.102017 -0.590595 152 141 120
-0.00235672 0.248376 -0.50745 164 155 139
0.0319442 0.158508 -0.590256 149 133 110
0.0320107 0.1688 -0.59002 152 137 114
0.00134774 -0.0571616 -0.543766 169 150 123
0.14924 -0.175903 -0.497801 130 127 119
0.0334593 0.216955 -0.59078 165 152 129
0.0707208 -0.185817 -0.666206 134 132 123
0.0249773 0.126912 -0.522201 170 160 142
0.0327825 0.234086 -0.589097 160 147 125
0.182038 -0.0546927 -0.503704 168 148 120
0.0314912 0.242198 -0.586708 150 136 112
0.0293991 0.25013 -0.583013 150 136 112
0.129608 -0.179947 -0.436761 116 113 103
0.0240197 0.266102 -0.575967 149 137 114
0.0418922 0.259815 -0.430598 217 214 204
0.0813962 -0.131209 -0.483235 189 187 178
0.101697 0.141423 -0.586483 141 121 93
0.0488297 0.0345516 -0.643125 155 147 129
0.0361112 0.0616689 -0.619905 133 120 97
0.0220583 0.137085 -0.522726 144 133 116
0.0836917 0.167449 -0.589375 162 145 120
0.0311234 0.0777431 -0.610972 149 129 103
0.0205521 0.176671 -0.589282 141 126 104
0.0238548 -0.173589 -0.619049 125 118 103
0.0896838 0.0869085 -0.496956 143 130 108
0.0508615 -0.149525 -0.4882 183 180 171
0.107917 -0.102381 -0.488447 173 167 155
0.0195033 0.223472 -0.585096 152 141 120
0.0203126 0.232997 -0.584304 152 141 120
-0.0216869 -0.184012 -0.557321 133 127 115
0.0172302 0.240525 -0.580664 153 141 121
-0.0185676 0.019798 -0.63745 157 146 123
0.0357652 0.0400121 -0.64053 149 135 109
0.117007 0.198372 -0.567816 159 143 120
0.0453954 0.118315 -0.46413 182 175 160
0.00128471 0.230199 -0.574824 154 143 124
-0.00343607 0.23763 -0.566675 147 138 121
0.0288719 0.0161367 -0.647339 87 88 87
0.18159 -0.0529855 -0.49604 182 164 142
0.0253429 0.0369015 -0.641901 139 127 104
0.18061 -0.034177 -0.507462 183 168 145
0.0227746 0.0417964 -0.636712 132 117 89
0.125636 -0.102027 -0.555887 175 149 114
0.019743 0.0489306 -0.630521 147 135 112
0.0219304 -0.00657001 -0.526009 242 240 231
0.0145419 0.055691 -0.623959 126 114 90
0.182844 -0.220579 -0.563964 153 151 143
0.180178 0.0489246 -0.562575 213 205 190
0.109984 -0.113501 -0.535929 125 97 61
0.00936247 0.0611157 -0.616409 163 153 132
0.190473 -0.0383228 -0.503659 168 148 120
0.124132 0.102284 -0.580137 132 111 82
0.021263 -0.225579 -0.643663 131 125 113
0.123126 0.100251 -0.568409 138 117 88
0.220408 -0.0349723 -0.492479 176 163 144
0.0148808 0.0325084 -0.64315 162 151 130
0.114763 0.238677 -0.440146 171 165 153
0.0421694 -0.0821976 -0.540491 140 117 90
0.0341428 -0.209533 -0.469911 145 146 140
0.00677422 0.0453623 -0.631346 154 142 120
-0.0221151 0.0199647 -0.646966 157 146 123
0.129273 -0.0599043 -0.554589 163 141 109
0.00171587 0.0509579 -0.624243 154 142 120
0.0189298 0.147533 -0.471264 193 187 174
-0.00782606 0.04898 -0.610503 203 193 172
0.0424358 0.255327 -0.415786 196 193 182
0.0246331 0.11622 -0.540079 169 159 140
0.00495755 0.0173082 -0.647363 130 125 113
0.002602 0.0277842 -0.644062 162 151 130
0.0421343 0.151197 -0.57931 173 156 129
-0.00566441 0.0411365 -0.632383 166 155 133
-0.0102506 0.0103218 -0.646584 152 141 125
-0.0105032 0.0222062 -0.643561 160 148 126
-0.0273486 0.0381543 -0.622148 182 168 143
-0.0254942 0.00243461 -0.645928 142 126 102
0.129074 -0.127269 -0.480727 145 122 93
-0.0259395 0.0141393 -0.643905 156 139 116
-0.0351592 0.0284196 -0.631519 182 168 143
0.0389201 0.143457 -0.560843 164 149 125
-0.0497212 0.010206 -0.634271 172 157 136
0.00624156 -0.152206 -0.492677 186 181 169
-0.0581665 0.0137382 -0.624976 219 209 188
0.0520241 -0.186817 -0.456351 175 178 173
0.216853 0.0391938 -0.562223 167 153 131
0.204457 0.0437702 -0.548932 178 168 153
0.12925 0.120716 -0.531757 161 147 123
0.158968 0.225364 -0.488915 152 137 114
-0.0493815 0.0112835 -0.620373 172 157 136
-0.0464282 0.0122986 -0.597672 221 215 201
0.155393 0.260432 -0.501989 151 142 129
0.201368 0.0392923 -0.57188 164 152 133
0.198987 0.0430095 -0.564548 164 152 133
0.0484194 -0.0888899 -0.49047 218 219 211
0.152634 -0.0570603 -0.487494 213 211 202
0.114678 0.0645038 -0.600761 164 143 113
0.196492 0.046418 -0.556513 213 205 190
0.157722 0.200752 -0.503618 141 127 107
0.0681362 -0.0606406 -0.563092 163 140 109
0.13221 0.235208 -0.477361 160 152 138
0.164632 -0.0460084 -0.515077 163 129 89
0.158704 0.213367 -0.51668 141 127 107
0.157539 0.231788 -0.52487 146 130 109
0.103759 0.0727114 -0.523478 172 163 150
0.0614321 0.232123 -0.596612 169 155 133
0.156984 0.24028 -0.528569 142 129 109
0.00120847 0.234135 -0.470784 196 192 180
0.152828 0.262234 -0.526738 147 134 114
-0.00989942 -0.036575 -0.545942 206 197 181
0.200615 0.000306115 -0.584451 118 97 69
0.200847 -0.236577 -0.584844 192 193 183
0.19803 0.0243075 -0.584235 143 125 101
0.121867 0.115276 -0.467964 170 160 144
0.185414 0.0472627 -0.550556 213 205 190
0.139181 0.0270511 -0.603651 137 123 98
0.154702 0.195928 -0.523439 150 136 116
-0.0184398 0.0249553 -0.633393 157 146 123
-0.0492626 -0.0303232 -0.579397 208 200 187
0.154685 0.207323 -0.530033 146 132 110
0.154751 0.217415 -0.536241 146 132 110
0.118933 0.166653 -0.575371 151 134 110
0.152667 0.233243 -0.544221 143 125 101
0.150634 0.256481 -0.543897 141 126 105
0.148761 0.263075 -0.540779 158 145 122
0.0987897 -0.0304239 -0.561591 191 172 145
0.144836 0.00148812 -0.524292 238 231 216
0.0374266 -0.0143845 -0.54994 215 207 193
0.0261509 0.0509864 -0.583986 204 198 186
0.141425 0.282883 -0.525013 163 153 137
0.182091 0.00124457 -0.553226 170 158 139
0.138898 0.289749 -0.519604 197 193 187
0.188798 0.0222166 -0.587224 130 117 97
0.187487 -0.217732 -0.576753 155 153 145
0.00932282 0.252024 -0.567414 157 146 125
0.183183 0.0422532 -0.573618 182 170 151
0.148853 0.17626 -0.523669 170 158 145
0.0446098 0.20027 -0.419852 201 198 188
0.147845 0.243079 -0.553141 141 126 105
0.144288 0.256305 -0.551808 141 126 105
0.138975 0.276244 -0.539517 163 153 137
0.134705 0.289532 -0.531642 153 141 122
0.131888 0.296348 -0.525485 153 141 122
0.00239161 -0.0140548 -0.559001 179 167 147
0.181616 0.0209408 -0.59126 126 113 92
0.0674143 -0.176524 -0.64976 134 130 119
0.146665 -0.171716 -0.537162 117 110 98
-0.00468701 0.20077 -0.50049 162 149 128
0.180109 0.028909 -0.587724 133 118 95
0.121637 -0.0067682 -0.559812 191 181 163
0.169266 0.0494413 -0.562889 178 166 146
0.128227 0.17532 -0.572591 150 131 105
0.16585 0.0522075 -0.553552 205 196 180
-0.040929 -0.207114 -0.504317 129 125 116
0.138495 0.132213 -0.502434 150 137 114
0.153374 -0.176374 -0.600054 110 99 77
0.0309918 0.00128871 -0.51944 237 233 217
0.208304 -0.187081 -0.612057 127 121 108
0.142369 0.153877 -0.523161 120 108 86
-1.37091e-06 0.237911 -0.5486 159 148 130
0.145668 0.172204 -0.540762 153 139 120
0.153797 -0.294758 -0.485305 128 126 119
0.148214 -0.0505582 -0.484828 213 211 202
0.0376017 0.0880495 -0.582856 156 145 125
0.144764 0.212051 -0.554283 149 131 108
0.144141 0.220353 -0.555767 159 141 118
0.0640614 0.108572 -0.442062 179 170 156
0.0436534 0.0842658 -0.464763 186 177 158
0.0478028 -0.201175 -0.465369 143 143 135
0.143517 0.228333 -0.557117 147 128 104
0.14327 0.237305 -0.557954 138 120 98
0.204147 -0.0444771 -0.495409 160 142 120
-0.0120753 -0.0150056 -0.55236 229 226 215
0.142025 0.243271 -0.558652 128 111 91
0.137338 0.263216 -0.552443 158 145 122
0.135469 0.269719 -0.549375 154 140 118
0.0458773 -0.15661 -0.522945 119 100 74
0.0730365 -0.0343746 -0.566539 178 159 132
0.137526 0.0229984 -0.542971 203 195 182
0.131417 0.282771 -0.542293 149 135 113
0.133556 0.0371535 -0.632115 159 147 125
0.00909177 0.207818 -0.55869 172 161 141
0.133949 0.0360757 -0.539876 203 195 182
0.129177 0.289371 -0.538127 153 141 122
0.129447 0.091034 -0.532062 154 140 117
0.126472 0.296096 -0.532587 153 141 122
0.135438 0.0367073 -0.551398 203 195 182
0.17336 0.0189719 -0.594924 121 108 86
0.033275 0.232417 -0.422866 204 203 195
-0.00494739 0.237385 -0.483662 182 172 156
0.144309 -0.279305 -0.462782 139 138 131
0.176374 -0.196304 -0.545828 136 133 124
0.192461 -0.0544232 -0.500984 182 164 142
-0.0750828 -0.0107644 -0.588285 183 170 152
0.172151 0.027625 -0.591545 133 118 95
0.161548 0.0516067 -0.569969 178 166 146
0.153512 0.0545012 -0.548457 201 193 177
0.134992 0.11435 -0.516836 164 152 128
0.182077 0.0436912 -0.606787 162 147 125
0.136999 0.132948 -0.530182 161 147 123
0.138797 0.149546 -0.539376 156 141 117
-0.00579125 -0.172757 -0.518324 126 124 116
0.140204 0.177906 -0.557171 136 116 89
-0.0710898 -0.0184466 -0.592093 183 170 152
0.141534 0.187695 -0.55992 137 116 87
0.139241 0.213149 -0.5621 159 141 118
0.040578 0.0968174 -0.573403 177 163 139
0.138698 0.221269 -0.563324 147 128 104
0.070222 0.306722 -0.552455 148 135 114
0.12837 0.276244 -0.552986 154 140 118
0.127184 0.0960027 -0.542831 167 152 129
0.123644 0.289216 -0.54414 149 135 113
0.166326 0.0181135 -0.598786 144 129 105
0.130336 0.0793393 -0.550595 179 172 157
0.164446 0.0281273 -0.596725 133 118 95
-0.0355394 -0.0474431 -0.547851 201 191 175
0.103867 -0.190472 -0.450652 137 137 130
0.162261 0.036297 -0.593369 133 118 95
0.159682 0.0425821 -0.588477 147 131 106
0.0294203 -0.175175 -0.53732 83 72 55
0.0701039 0.260809 -0.58865 166 152 129
0.137476 0.0647447 -0.537551 183 176 164
0.133342 0.0858036 -0.532749 154 140 117
0.120079 0.0126758 -0.56961 161 143 117
0.11707 0.265802 -0.573469 159 143 120
0.131712 0.0971231 -0.531691 154 140 117
0.134297 0.130772 -0.547631 158 140 115
0.135978 0.15809 -0.5595 163 145 120
0.00142825 0.01912 -0.565577 237 235 227
0.038326 0.248936 -0.596608 182 171 152
0.154925 -0.0451314 -0.518889 146 116 80
0.136949 0.170292 -0.562929 136 116 89
0.135443 0.188656 -0.566572 137 116 87
-0.0206862 0.0110821 -0.644278 156 139 116
0.202265 0.0262686 -0.571514 167 153 131
0.134887 0.197455 -0.567576 158 139 113
0.0662991 0.193759 -0.429013 178 173 162
0.0405771 0.068886 -0.602698 163 151 130
0.132509 0.229497 -0.570321 149 131 105
0.00022012 -0.022286 -0.558477 160 139 112
0.131676 0.236716 -0.570177 149 131 105
-0.0106981 -0.252925 -0.582617 134 129 119
0.124172 0.276936 -0.55851 151 134 108
0.0461086 0.245763 -0.420036 228 225 216
0.1124 0.30244 -0.538816 146 133 110
-0.0358923 -0.00915945 -0.581187 195 188 174
0.160237 0.00734144 -0.605321 154 137 113
0.0142293 -0.193779 -0.621582 126 115 99
0.0601797 0.169585 -0.595022 172 155 130
0.0492692 -0.175568 -0.654524 132 130 119
0.154652 0.0369956 -0.598696 124 108 83
0.13943 0.0957507 -0.555214 167 152 129
0.149457 0.0500388 -0.589297 152 135 109
-0.016461 -0.206216 -0.566008 134 130 119
-0.00785992 0.0245792 -0.57447 237 235 227
0.0843212 -0.0204305 -0.529321 220 212 196
-0.0159708 -0.206883 -0.578398 129 121 108
0.074393 0.0777002 -0.46094 131 119 99
0.13359 0.0782654 -0.557998 179 172 157
-0.0396993 -0.179815 -0.516249 171 167 158
0.130225 0.149456 -0.565886 151 132 105
0.1304 0.160761 -0.56882 150 131 105
0.129996 0.170645 -0.570064 150 131 105
-0.00377034 -0.0279045 -0.551158 206 197 181
-0.00256108 -0.0207189 -0.534865 240 238 227
0.0506638 0.214855 -0.598748 170 155 131
0.1589 0.251287 -0.511457 148 138 121
0.129425 0.189525 -0.572917 158 139 113
0.124223 0.25064 -0.574208 145 129 107
0.119941 0.270014 -0.567208 157 142 119
0.112799 0.289844 -0.5557 145 130 107
-0.0212747 -0.186947 -0.562392 126 123 115
0.108344 0.295865 -0.550646 145 130 107
0.1122 0.11918 -0.513555 129 115 94
0.152112 0.00621974 -0.609463 154 137 113
0.0492752 0.0921841 -0.605346 151 133 106
-0.00462267 -0.135325 -0.52117 189 180 163
0.150609 0.0177759 -0.608197 154 137 113
0.149159 0.0291347 -0.607011 141 126 102
0.147096 0.0376955 -0.603992 141 126 102
0.14246 0.0529088 -0.596499 152 135 109
0.139669 0.0591015 -0.591469 157 140 114
0.12868 0.0866212 -0.572208 148 129 100
0.201963 0.0095554 -0.559572 131 109 78
0.126774 0.0958673 -0.569652 148 129 100
0.12332 0.138886 -0.569633 147 127 99
0.123763 0.150798 -0.572696 151 132 105
0.124999 0.161757 -0.57418 150 131 105
0.0620735 -0.147706 -0.552959 138 123 98
0.124556 0.171816 -0.57568 150 131 105
0.124018 0.181304 -0.576627 159 141 117
0.123375 0.190202 -0.578761 148 127 97
0.0607045 -0.102013 -0.556345 141 117 87
0.0626868 -0.120744 -0.555064 165 144 113
0.0837581 -0.176025 -0.65978 125 120 105
0.0539063 -0.0235403 -0.569375 175 158 132
0.0203834 -0.167004 -0.478084 138 136 126
0.0924142 -0.233135 -0.444125 141 146 144
0.123035 0.205684 -0.5806 161 141 111
0.0574098 0.123096 -0.434946 179 170 156
-0.058211 0.00394645 -0.620393 219 209 188
0.122327 0.215109 -0.580837 161 141 111
-0.0605112 0.0130823 -0.608973 185 169 150
0.122055 0.222911 -0.581609 154 134 108
0.109438 0.28238 -0.56439 154 140 120
0.165433 -0.259455 -0.518484 138 136 129
-0.047795 -0.00501394 -0.612763 183 172 157
-0.0331394 -0.2485 -0.536968 127 120 109
0.0972608 0.308786 -0.540291 145 130 109
0.139594 0.0383964 -0.609255 137 123 98
0.191166 -0.0656986 -0.487762 158 143 121
-0.043854 0.00165073 -0.566462 237 233 221
0.137495 0.0466913 -0.606092 161 142 113
0.083683 0.183405 -0.605246 182 169 146
0.135269 0.0545665 -0.602613 161 142 113
0.129483 0.0691248 -0.595704 151 133 106
0.00423411 0.164872 -0.499109 174 162 144
0.124211 0.0926367 -0.58327 145 125 96
0.0246169 -0.29024 -0.674499 133 127 116
0.0554069 -0.0584753 -0.557613 121 95 66
0.11913 0.108268 -0.575965 146 126 95
0.116613 0.140047 -0.57606 154 136 110
0.11677 0.151141 -0.577864 154 136 110
0.0728268 0.0519238 -0.51746 194 187 173
0.117671 0.162059 -0.579233 151 134 110
0.115055 0.234106 -0.444372 171 165 153
0.0726199 -0.257881 -0.664973 141 136 125
0.000600278 0.198096 -0.47902 176 169 155
0.103396 0.282252 -0.568164 154 140 120
-0.0109855 -0.00260396 -0.575488 188 179 165
0.026752 0.258042 -0.578409 154 141 117
-0.0359563 -0.0311177 -0.559254 220 215 202
0.0984508 0.295126 -0.559817 136 120 94
-0.0349374 -0.0337638 -0.556355 220 215 202
0.0952274 0.301786 -0.554146 136 120 94
0.196913 -0.323854 -0.62005 144 138 125
0.134631 0.0165139 -0.617025 137 123 98
0.133362 0.0279049 -0.615715 137 123 98
0.13187 0.0382305 -0.61388 137 123 98
0.0213663 0.128061 -0.511163 166 156 138
0.0489338 -0.294201 -0.672477 138 133 121
0.0397545 0.241056 -0.419629 228 225 216
0.00351378 0.220761 -0.577974 154 143 124
0.0311535 0.0641894 -0.582809 184 175 157
0.102729 0.0563774 -0.60632 145 123 91
0.122914 0.0698154 -0.599942 164 147 120
0.120103 0.0772102 -0.595997 153 132 100
-0.0254073 -0.137881 -0.524339 160 153 138
0.0857539 0.129807 -0.443117 196 191 182
0.157468 -0.239188 -0.63071 138 131 120
0.11203 0.109093 -0.582892 151 131 100
0.110319 0.171969 -0.585897 155 137 110
0.170064 0.0198091 -0.593971 121 108 86
0.110657 0.190642 -0.588335 162 145 119
0.110526 0.207507 -0.58971 166 148 122
0.0691513 -0.0238638 -0.509279 226 221 206
0.116248 0.141151 -0.503432 144 129 108
0.108182 0.23692 -0.588097 161 143 119
0.0442188 0.129859 -0.592595 156 139 111
0.0239227 0.244699 -0.43761 206 202 190
0.0171795 -0.200317 -0.488318 146 145 138
0.031171 0.0493146 -0.634196 140 127 104
0.100777 0.269484 -0.579105 165 151 127
0.0315845 -0.0950721 -0.528439 166 150 127
0.0974243 0.282126 -0.572054 160 143 118
0.0947002 0.288514 -0.567504 154 139 116
0.0874848 0.309518 -0.554431 127 111 85
0.0604188 -0.0805684 -0.576641 167 146 117
0.125358 0.0263893 -0.620024 148 135 112
0.0620327 0.130886 -0.425188 148 144 135
-0.0236978 -0.218154 -0.558447 134 130 119
0.122294 0.0469901 -0.615785 161 142 113
0.14736 0.193224 -0.540022 146 129 106
0.117659 0.0623197 -0.608541 164 143 113
0.118727 -0.177787 -0.475062 141 137 128
0.157903 0.0540957 -0.560609 186 175 157
0.115413 0.0702158 -0.605061 164 143 113
0.103142 0.171597 -0.589688 155 137 110
0.103578 0.198716 -0.592159 162 145 119
0.103568 0.215001 -0.593162 166 148 122
0.145147 0.240094 -0.551492 141 126 105
0.1009 0.243477 -0.590222 165 150 127
0.100105 0.250199 -0.589236 165 150 127
0.0988401 0.256679 -0.587403 171 156 134
0.0972718 0.263043 -0.585025 167 152 129
0.0907385 0.28197 -0.574646 160 143 118
0.0510602 -0.0533159 -0.548957 129 104 75
0.086871 0.0573989 -0.624897 151 136 110
0.0619042 -0.0628017 -0.559589 121 98 72
0.0824955 0.30154 -0.561281 128 115 89
0.0106656 -0.150906 -0.506648 150 141 124
0.0707685 0.316386 -0.541453 181 172 158
0.0601794 -0.0181324 -0.533014 231 227 215
0.0183887 0.193594 -0.456344 180 177 167
0.133291 0.110956 -0.547461 150 130 101
0.119253 0.0173321 -0.627157 155 144 124
0.108379 0.0642422 -0.522904 184 177 165
0.0653364 0.0152025 -0.572105 178 161 135
0.0343278 -0.178728 -0.59049 110 102 85
0.0277444 0.0421953 -0.577131 204 200 188
0.0651663 0.0309584 -0.63706 136 126 107
0.0612343 0.266447 -0.423642 204 200 189
0.0883892 0.148229 -0.446986 204 199 190
0.180631 -0.304064 -0.523409 136 135 127
0.109583 0.0613692 -0.612557 145 123 91
-0.00386815 0.224559 -0.538427 189 179 160
0.0973793 0.0985342 -0.591168 162 141 109
0.0938869 0.117428 -0.588365 168 148 118
0.095384 0.170666 -0.592561 162 145 120
0.0958355 0.180272 -0.593619 174 158 134
0.0697792 0.0154242 -0.533768 219 215 204
0.0339341 0.240846 -0.424687 228 225 216
0.150047 -0.260069 -0.639077 141 134 121
-0.00257364 0.230302 -0.465841 197 191 178
0.0684913 0.0271229 -0.635245 136 126 107
0.09585 0.229335 -0.595225 168 153 132
0.0900251 0.26267 -0.586651 167 152 129
0.08818 0.269043 -0.5838 167 152 129
0.00311789 0.268315 -0.49198 202 194 177
0.107648 0.29062 -0.494139 183 175 160
0.0805096 0.288266 -0.571714 154 139 116
0.11152 0.23344 -0.576208 162 145 124
0.072123 0.308329 -0.558469 145 130 104
0.0809508 -0.18702 -0.461175 141 140 134
0.120115 0.162399 -0.570445 151 134 110
0.10599 0.0445554 -0.62358 165 148 121
0.036698 -0.170606 -0.611102 125 118 103
0.0754087 0.0252096 -0.637346 136 126 107
0.0333991 0.0275476 -0.551282 222 220 212
0.105062 0.0535504 -0.620242 145 123 91
0.0988888 0.0678019 -0.612657 154 134 102
0.0960139 0.0746961 -0.608224 154 134 102
0.0933136 0.0820393 -0.604063 155 133 100
0.0879605 0.0970982 -0.595818 162 141 109
0.147087 0.2621 -0.5151 151 142 129
0.0861602 0.106032 -0.593063 168 148 118
-0.000482246 0.205337 -0.503056 162 149 128
0.0600304 0.254493 -0.593407 157 142 118
0.0886631 0.197165 -0.597376 174 158 134
0.0385742 0.0643 -0.527818 195 189 174
-0.0505432 -0.00758144 -0.591687 198 189 173
0.0969872 0.21757 -0.596151 174 159 136
0.0857024 0.249258 -0.593019 171 156 134
0.184487 0.00047572 -0.525559 168 150 125
0.0124361 0.0167992 -0.643607 130 125 113
0.0780531 0.275104 -0.581258 155 138 112
0.0752914 0.281575 -0.576998 155 138 112
0.150122 -0.235512 -0.638064 138 131 120
0.0633673 0.30193 -0.558571 143 130 108
-0.0189894 -0.263361 -0.537123 109 99 83
0.0577754 0.309347 -0.549919 161 151 133
0.100224 0.0225181 -0.631593 153 141 120
0.0973461 0.0424938 -0.626984 144 129 104
0.0283464 -0.170905 -0.650739 121 118 107
0.0324992 0.156764 -0.447711 206 202 190
0.141101 0.259546 -0.497271 158 151 138
0.0954542 0.051295 -0.624043 144 129 104
0.10571 0.129547 -0.453651 193 188 178
0.0361317 -0.379981 -0.679211 144 141 131
0.0761158 0.104956 -0.595646 170 151 121
0.194229 -0.25642 -0.566542 151 149 141
0.00572246 -0.0871052 -0.506424 215 215 208
0.101312 0.147558 -0.466089 215 212 204
0.0751439 0.13472 -0.592694 165 147 118
0.116306 0.193197 -0.464772 172 164 152
0.0721609 0.268265 -0.585603 166 152 129
0.117644 0.186511 -0.447047 158 151 140
0.0695731 0.274773 -0.581693 155 138 112
0.0723185 0.0230959 -0.577588 159 143 118
0.0671932 0.281367 -0.578085 174 163 145
0.0521407 0.113958 -0.500095 137 129 115
0.0540356 0.302052 -0.55846 150 138 118
0.0893335 0.0300589 -0.631957 153 141 120
0.0618441 -0.0586456 -0.515875 236 233 225
0.0864797 0.0488874 -0.627207 144 129 104
0.122347 0.183955 -0.449099 144 136 123
0.031775 0.110843 -0.539667 170 161 143
0.0405565 0.253444 -0.590801 154 139 115
0.0769338 0.0689051 -0.614492 146 128 99
0.184849 0.0295426 -0.576552 164 152 133
0.0733216 0.0779085 -0.60756 146 128 99
0.049504 0.180147 -0.599946 172 155 130
0.010797 0.185563 -0.548819 166 154 135
0.0418285 0.251229 -0.587226 157 142 118
0.0722795 0.0851654 -0.603143 166 146 115
0.0662572 0.100446 -0.597194 161 139 106
0.109681 0.0291031 -0.529212 215 207 193
0.0649475 0.110153 -0.594973 164 145 114
0.0641612 0.120308 -0.593451 164 145 114
-0.00104167 0.0208362 -0.584063 192 185 172
0.0645471 0.131492 -0.593494 165 147 118
0.0464001 -0.142834 -0.498823 183 180 171
-0.00328245 0.221316 -0.54263 189 179 160
0.0662247 0.145014 -0.594434 160 142 115
0.067648 0.153881 -0.595116 163 146 120
0.0883357 -0.171829 -0.645572 131 126 114
0.217997 0.000503704 -0.534667 171 159 140
0.07103 0.18542 -0.600047 180 165 140
0.0691333 0.247829 -0.594725 164 149 126
0.0937855 0.105899 -0.465392 194 189 177
0.0696014 0.00290842 -0.578829 177 163 141
0.109162 0.0183904 -0.568089 152 137 113
0.0584183 -0.157266 -0.551232 141 127 105
0.0655626 0.26118 -0.589241 166 152 129
0.0526304 0.289155 -0.571101 146 131 106
0.0493862 0.294904 -0.56556 146 131 106
0.0083895 0.0253425 -0.560899 240 240 233
0.122618 -0.0707085 -0.489529 193 190 181
0.0774701 0.0466803 -0.630593 144 130 106
0.00254923 -0.033824 -0.526634 238 237 229
-0.000120819 0.215275 -0.52805 170 160 141
0.0293918 0.134642 -0.544205 168 157 136
0.10846 -0.130234 -0.49991 138 116 87
0.0947297 -0.16028 -0.544163 61 51 35
0.0643775 0.0742572 -0.612168 146 128 99
0.0611536 0.080342 -0.607726 151 133 106
0.0604482 -0.172725 -0.602607 123 115 99
0.213745 -0.224239 -0.61484 135 130 120
0.167552 0.00485827 -0.527811 217 208 191
0.0572803 0.0877043 -0.601814 151 133 106
0.0931576 0.0510376 -0.524598 193 185 170
0.0274925 0.0671187 -0.583446 184 175 157
0.0522182 0.0948649 -0.596578 166 151 126
0.0513358 0.114943 -0.592359 160 143 116
0.0543374 0.139437 -0.594658 156 139 111
0.194331 0.00789765 -0.551739 170 158 139
0.15574 0.0323071 -0.620239 156 141 116
0.0121804 -0.207202 -0.644466 138 133 123
0.0602734 0.173637 -0.600125 172 155 130
0.107039 0.0254763 -0.529202 215 207 193
0.0321411 -0.365884 -0.680881 143 137 123
0.0597362 0.186925 -0.59536 175 158 133
0.148817 -0.172712 -0.607801 110 99 77
0.147004 -0.170619 -0.588756 103 91 68
-3.18885e-05 -0.00562383 -0.545071 240 238 227
0.0634836 0.104868 -0.598 165 148 121
0.0613474 0.183407 -0.600882 175 158 133
0.0615016 0.19223 -0.60051 175 158 133
0.145775 0.0729886 -0.586548 157 140 114
0.0620026 0.201009 -0.60059 181 168 145
0.181888 0.00883034 -0.541047 170 158 139
0.144688 0.0642502 -0.586592 157 140 114
-0.000100017 -0.093045 -0.511195 230 230 224
0.109127 0.130952 -0.449046 193 188 178
0.0623471 0.209433 -0.600491 181 168 145
0.104392 0.084359 -0.600614 176 157 128
0.107137 -0.174517 -0.600664 103 88 61
0.03709 0.186564 -0.598489 159 146 123
0.001035 0.207338 -0.535796 180 169 149
0.104214 0.0814945 -0.516431 159 150 135
0.108927 -0.172163 -0.515912 66 51 32
-0.00102779 0.213195 -0.466272 184 176 160
0.108603 -0.17117 -0.557022 67 55 36
0.0624576 0.225311 -0.599606 182 172 155
0.0557408 0.26045 -0.58864 157 142 117
0.113386 -0.0154479 -0.561645 191 181 163
0.154976 0.0169517 -0.540299 220 213 197
0.207741 0.0103032 -0.598338 139 122 96
0.0476592 0.281774 -0.575172 147 132 107
0.0429011 0.287778 -0.570258 146 131 106
0.179962 -0.0421043 -0.499421 168 148 120
0.143563 0.0159449 -0.576603 130 109 82
0.0682048 0.0452293 -0.635576 163 150 128
0.177186 -0.0279953 -0.517665 190 176 155
0.0658107 0.0530757 -0.631088 144 130 106
0.0956339 -0.051423 -0.510426 212 208 198
0.176687 -0.0188707 -0.522336 158 131 98
0.0628501 0.059728 -0.62609 146 133 108
0.0590628 0.0574534 -0.511881 213 212 203
0.00629488 -0.140876 -0.51303 150 141 124
-0.0175536 -0.17252 -0.57645 117 112 101
0.0585839 0.0652481 -0.620416 148 134 108
0.0394525 0.0878835 -0.595152 166 151 126
0.0329508 0.10437 -0.585825 152 141 120
0.146644 -0.220149 -0.42242 166 169 162
0.104332 -0.257829 -0.657671 148 142 131
0.0396946 0.143696 -0.590744 149 133 110
-0.0366687 -0.247625 -0.531258 127 120 109
0.0519358 0.223448 -0.599156 183 172 154
0.0469182 0.252615 -0.590385 157 142 118
0.180435 -0.321715 -0.621152 124 119 104
0.152114 0.276374 -0.504726 151 142 129
0.0444608 0.259521 -0.586803 157 142 117
0.0171231 0.204086 -0.582503 148 136 117
0.0595196 0.0181408 -0.640621 98 90 77
0.0598739 0.0418021 -0.638958 170 158 135
0.171261 -0.199047 -0.531978 137 135 127
0.0566561 0.0505192 -0.634005 143 129 103
0.0435608 0.06765 -0.61715 148 133 107
0.0349551 -0.182441 -0.602311 78 70 56
0.0311346 0.0761844 -0.601945 149 129 103
0.0232445 0.157833 -0.584489 149 133 110
0.0344019 0.175037 -0.595596 152 137 114
0.0364841 0.185538 -0.596923 159 146 123
0.00652227 -0.0526123 -0.535784 212 208 197
0.00175263 0.200176 -0.533579 180 169 149
0.0366063 0.194562 -0.596141 159 146 123
0.0366208 0.203312 -0.595262 165 152 129
0.0454414 -0.0458346 -0.573366 191 169 140
0.00257882 0.188475 -0.520873 165 153 133
0.004494 0.187841 -0.495558 162 150 132
0.0394446 0.213072 -0.59752 165 152 129
0.0726974 0.30409 -0.473132 203 198 185
0.0400819 0.221525 -0.59739 178 166 145
0.0488855 0.190571 -0.608139 175 158 133
0.0763863 -0.173808 -0.64397 134 130 119
0.0396166 0.22936 -0.596051 178 166 145
0.038681 0.236921 -0.594198 178 166 145
0.087949 -0.0211082 -0.525689 220 212 196
0.0339572 0.251197 -0.587289 150 136 112
0.0305866 0.258231 -0.582296 149 135 109
-0.0634887 -0.0285649 -0.569838 192 180 163
0.0242171 0.280165 -0.573092 151 139 116
0.0473237 -0.163411 -0.523269 80 67 48
0.155862 0.0221001 -0.595709 124 108 83
0.0507318 0.0296114 -0.643677 155 147 129
0.0441032 0.0540863 -0.631151 143 129 103
0.0323402 0.0639491 -0.619529 133 120 97
0.0262391 0.0684938 -0.612334 163 151 130
0.145934 0.018712 -0.546923 169 153 131
0.140322 0.265886 -0.548389 158 145 122
0.0209054 0.292585 -0.519075 190 181 163
0.0625932 0.292049 -0.456399 198 192 180
0.074352 -0.208961 -0.454581 142 142 135
0.0320165 0.195838 -0.603466 159 146 123
0.0465541 0.0321759 -0.542188 223 222 215
0.0192742 0.198515 -0.589251 139 124 102
0.111831 0.0770551 -0.599717 153 132 100
0.0211252 0.209116 -0.59215 148 136 117
0.18928 -0.0103539 -0.509405 207 196 178
0.0246999 0.218276 -0.592814 165 152 129
0.2232 0.0184027 -0.575029 182 170 152
0.14991 0.202115 -0.536764 146 132 110
-0.0497423 -0.0180639 -0.592847 198 189 173
0.00685797 -0.195249 -0.638393 126 115 99
0.135236 -0.0532865 -0.530574 138 108 71
-0.0804984 -0.0179553 -0.583202 207 195 176
0.0393848 0.0368014 -0.64436 149 135 109
0.0359401 0.0438578 -0.639854 149 135 109
0.0350139 -0.0249463 -0.512428 231 229 218
0.0261922 0.0548278 -0.628314 140 127 104
0.0990917 0.150416 -0.580595 146 128 107
0.0131913 0.0634023 -0.613739 163 153 132
0.0200763 0.0444774 -0.635997 132 117 89
0.0250928 -0.197464 -0.635469 88 79 65
0.121693 0.170003 -0.570063 150 131 105
0.032151 0.0603362 -0.582102 184 175 157
0.153848 0.0309666 -0.613302 141 126 102
0.0488587 -0.0293518 -0.557109 152 133 110
0.0135383 0.0496937 -0.630142 154 142 120
0.0861122 0.0513858 -0.51486 185 177 162
0.0168072 0.0136386 -0.650244 109 106 100
0.0591568 0.0753246 -0.606276 148 133 107
0.163552 -0.0149279 -0.521644 179 161 136
0.167886 -0.275682 -0.523973 137 137 130
-0.01478 0.00567228 -0.57254 222 219 209
4.34518e-05 0.0440013 -0.631835 166 155 133
0.0048324 0.167195 -0.472638 183 175 161
0.0842382 0.0649311 -0.615009 154 134 102
0.053518 -0.0428624 -0.568423 168 147 119
-0.0227106 0.0442156 -0.610708 203 193 172
0.0196089 0.0158705 -0.547456 236 235 226
0.0842632 -0.203812 -0.660416 138 134 123
0.0194543 0.0170972 -0.572257 232 231 224
-0.00785699 0.0327537 -0.640018 160 148 126
-0.0251339 0.0386683 -0.623788 182 168 143
0.0294694 0.218043 -0.592259 165 152 129
-0.0486537 0.0277314 -0.605029 207 192 165
-0.0279876 -0.0936132 -0.535061 189 182 168
-0.0183216 0.0057618 -0.649188 156 139 116
0.0119231 0.165007 -0.502967 155 138 115
-0.0283924 0.0212496 -0.639061 157 146 123
0.164208 -0.227832 -0.510751 143 142 135
-0.0490922 0.0237951 -0.620127 213 204 185
-0.0492484 0.00715768 -0.637228 125 111 86
0.105729 -0.119508 -0.554307 156 130 96
0.0497919 0.015561 -0.644325 155 147 129
0.101678 0.171017 -0.444324 198 196 189
0.0172841 -0.171647 -0.525941 99 93 81
0.215983 -0.050102 -0.488291 156 139 118
0.0858556 0.109344 -0.455979 187 181 171
0.2114 -0.0472486 -0.477634 134 121 102
0.203492 -0.037735 -0.492936 190 180 163
0.197559 -0.0395625 -0.478255 230 221 207
0.200028 -0.0653485 -0.48899 155 142 125
0.16109 0.222061 -0.478186 135 118 97
0.120884 -0.235257 -0.435743 117 121 118
0.155636 0.23935 -0.47096 157 148 135
0.129049 0.253093 -0.567741 145 129 107
0.20042 -0.0331552 -0.515863 167 147 120
0.159761 0.22609 -0.499103 152 137 114
0.121451 0.199995 -0.553034 134 118 94
0.123559 -0.194756 -0.642385 125 121 109
0.183527 -0.0185946 -0.510434 207 196 178
0.158873 0.200402 -0.511598 141 127 107
0.158603 0.210437 -0.513412 141 127 107
0.155737 0.22959 -0.515324 145 132 113
0.225405 0.00917709 -0.577397 127 112 85
0.155741 0.237262 -0.513878 145 132 113
0.140917 0.029524 -0.626749 165 151 128
-0.00601346 -0.238973 -0.594956 143 139 131
0.155042 0.245878 -0.514478 148 138 121
0.185424 -0.0211772 -0.538467 174 160 135
0.170853 -0.00892022 -0.513068 217 209 192
-0.0493883 -0.0267887 -0.586675 208 200 187
0.106547 -0.171582 -0.571669 76 63 41
-0.00112671 0.213303 -0.516 170 159 141
0.154805 0.222294 -0.527624 146 130 109
0.0473497 0.047062 -0.531272 212 210 201
0.0954676 -0.192543 -0.653531 131 128 118
0.0215361 0.171037 -0.563505 152 138 117
0.154515 0.00109661 -0.524325 238 231 216
0.0841422 0.104415 -0.599914 176 157 128
0.148379 0.262708 -0.523261 147 134 114
0.135633 0.00438469 -0.536359 222 214 198
0.173845 -0.0108231 -0.541903 162 144 119
0.136586 0.169077 -0.534378 154 138 115
0.152841 0.206853 -0.53905 146 132 110
0.135362 0.164837 -0.545522 156 140 117
0.152018 0.215632 -0.538976 146 132 110
0.152652 0.225111 -0.538839 146 130 109
0.204849 -0.0303703 -0.524596 157 139 113
-0.0111307 -0.000971347 -0.61334 134 129 127
-0.042256 -0.171324 -0.49154 153 149 140
0.147942 0.00592071 -0.530139 223 216 201
0.144279 0.263297 -0.532759 147 134 114
-0.0441618 0.0165457 -0.635381 213 204 185
0.138543 -0.166616 -0.450218 113 110 102
0.0740089 -0.227481 -0.664852 141 136 126
0.138613 0.277773 -0.524961 163 153 137
0.134649 0.285016 -0.519049 197 193 187
0.0641109 0.00792244 -0.542454 236 233 222
0.080473 0.205563 -0.598777 180 168 148
-0.0286179 -0.00509004 -0.622906 149 134 112
0.130365 0.292446 -0.512597 168 161 149
0.166489 -0.00677815 -0.551526 162 144 119
0.127505 0.0646368 -0.613793 164 147 120
0.16365 0.000821546 -0.545804 162 144 119
0.121308 0.139643 -0.49458 152 140 122
0.139328 0.169483 -0.527992 170 158 145
0.145704 0.186846 -0.541186 146 129 106
0.147332 0.196863 -0.545412 146 129 106
0.0499018 -0.0150564 -0.524766 237 234 219
0.148237 0.217861 -0.546908 149 131 108
0.143646 0.0173326 -0.539017 220 213 197
0.140107 0.263802 -0.541517 158 145 122
0.134245 0.277996 -0.533525 149 138 119
0.126932 -0.170292 -0.617945 97 83 60
0.0673248 0.198144 -0.595247 174 159 135
0.122156 0.299977 -0.51613 177 169 154
0.145019 -0.17766 -0.484017 130 127 119
-0.00650172 -0.17403 -0.495408 128 127 118
-0.086705 -0.0112969 -0.597832 207 195 175
0.159451 -0.00250903 -0.561115 169 153 131
0.0114081 -0.180319 -0.605708 127 120 108
0.155333 0.00567512 -0.555294 169 153 131
0.149727 0.0211703 -0.546725 206 197 179
0.11641 0.117124 -0.505239 129 115 94
0.133773 0.160927 -0.536546 154 138 115
-0.0462501 0.00934431 -0.610664 194 184 167
0.163527 -0.254301 -0.479422 188 187 177
0.140523 0.178223 -0.548741 153 139 120
0.142129 0.189706 -0.552344 146 129 106
0.105801 -0.055671 -0.504647 214 210 200
-0.0359533 -0.0674284 -0.556543 192 182 164
0.0349225 0.0879135 -0.467944 176 168 153
0.160493 -0.0707498 -0.49057 177 165 146
0.155398 0.251057 -0.490202 155 147 135
0.135342 0.264102 -0.548821 154 140 118
0.132718 0.271134 -0.545389 154 140 118
0.115834 0.152363 -0.491362 152 140 122
0.129798 0.278182 -0.541497 149 135 113
0.126865 0.092972 -0.532018 154 140 117
0.123022 0.292497 -0.532271 153 141 122
0.126575 -0.174684 -0.526584 76 64 46
0.118705 0.299853 -0.526224 156 147 131
0.114178 0.30743 -0.51987 171 165 151
0.151355 -0.246895 -0.638343 140 133 120
0.0265663 0.255904 -0.42487 196 193 183
0.149241 0.00988996 -0.566041 130 109 82
0.0940892 0.183806 -0.587094 174 158 134
0.137613 0.0478281 -0.551538 188 179 163
0.124397 0.139383 -0.540225 158 140 115
0.133995 0.0561045 -0.546789 188 179 163
-0.00419113 0.0153344 -0.576969 237 235 227
0.130446 0.0646657 -0.54216 179 172 157
-0.00240716 0.0130679 -0.587021 192 185 172
0.129264 0.0770852 -0.541262 183 176 164
-0.0252032 -0.308249 -0.49952 142 141 132
0.0558666 0.185113 -0.594588 168 153 127
0.0848967 0.0698023 -0.622229 151 136 110
0.00937045 -0.0853437 -0.507552 215 215 208
0.0768501 -0.130456 -0.570329 171 151 120
0.123525 0.0963176 -0.534139 154 140 117
-0.00838348 0.0211251 -0.609444 205 198 182
0.120602 0.12018 -0.535505 153 138 114
-0.0291708 -0.0308397 -0.549809 220 215 202
0.0585497 0.102871 -0.59867 165 148 121
0.0717753 0.225219 -0.600447 182 172 155
0.126411 0.138057 -0.541183 158 140 115
0.130911 0.154405 -0.548885 163 145 120
0.109605 -0.107115 -0.570877 173 148 114
0.143012 0.117831 -0.519906 164 152 128
0.135308 0.169542 -0.556355 156 140 117
-0.0188554 0.0363708 -0.633132 167 154 131
0.136828 0.20032 -0.560658 159 141 118
0.136539 0.208445 -0.56287 159 141 118
0.137581 0.229028 -0.564124 147 128 104
0.136856 0.236623 -0.563885 141 122 100
0.0230301 0.117435 -0.524178 174 163 146
0.113251 0.299743 -0.532768 146 133 110
0.169413 -0.262263 -0.522699 137 137 130
0.134369 -0.192854 -0.639945 128 126 116
0.0559718 -0.00341688 -0.571585 167 149 124
0.159253 0.00705218 -0.597863 154 137 113
0.173804 0.0546135 -0.571888 178 166 146
0.140324 0.0243756 -0.57249 138 119 90
0.135418 0.0445242 -0.566566 184 172 151
0.0714265 0.212396 -0.431043 202 199 188
0.189502 -0.0880665 -0.480298 155 144 124
0.0269099 0.025206 -0.565904 224 222 215
0.132606 0.0547563 -0.564117 184 172 151
0.128261 0.0745965 -0.557952 179 172 157
0.123747 0.107524 -0.553103 150 130 101
0.0142146 -0.22667 -0.664424 151 145 134
0.123303 0.11938 -0.552985 150 130 101
0.127498 0.144881 -0.559004 163 145 120
0.129592 0.159659 -0.563425 151 132 105
0.131873 0.191601 -0.566309 158 139 113
0.0688272 0.126635 -0.437544 170 164 153
0.042698 -0.170961 -0.650687 132 130 119
0.131789 0.200498 -0.567305 160 141 114
0.131364 0.217303 -0.568865 161 142 116
0.0401572 0.0680379 -0.608746 158 145 122
-0.0405079 -0.31184 -0.502742 138 137 129
0.131779 0.227442 -0.569177 149 131 105
-0.035546 -0.185255 -0.521668 117 112 101
0.128854 0.249453 -0.567505 145 129 107
0.125356 0.264497 -0.561868 157 142 119
0.00370356 0.169629 -0.53709 141 126 104
0.19029 0.00874369 -0.568263 132 119 100
0.0321668 0.136147 -0.580962 156 141 118
0.122492 0.271366 -0.558206 151 134 108
0.0214671 -0.0680855 -0.535784 185 175 159
0.18765 -0.249951 -0.544394 167 166 158
0.116234 0.285297 -0.550159 145 130 107
0.0271522 0.11036 -0.58211 152 141 120
0.0817232 -0.170877 -0.645332 131 126 114
0.11236 0.292383 -0.545113 145 130 107
0.00522095 0.281178 -0.525617 184 174 154
0.106936 0.299639 -0.537938 145 130 109
0.00708288 -0.0384493 -0.546049 192 181 162
0.0274582 0.296023 -0.517942 190 181 163
0.0326198 0.0723902 -0.518682 199 195 184
0.101019 0.181573 -0.44452 198 196 189
0.0523387 -0.169938 -0.588747 107 97 78
0.0489951 0.0871633 -0.589096 166 151 126
0.118398 -0.130544 -0.544749 161 136 100
0.154083 0.0132721 -0.607271 154 137 113
0.149227 0.0154692 -0.600358 139 122 98
0.133969 -0.195879 -0.434074 130 129 122
0.121499 0.138444 -0.558442 147 127 99
0.128928 0.0614327 -0.575509 174 161 138
0.127166 0.0720185 -0.573415 174 161 138
0.121248 0.101995 -0.566278 138 117 88
0.057138 -0.0568884 -0.570326 168 147 119
0.119779 0.113371 -0.564517 138 117 88
0.120289 0.136377 -0.565654 147 127 99
0.123428 0.161171 -0.570173 151 132 105
0.125059 0.173406 -0.570559 150 131 105
0.0119095 0.278735 -0.535943 173 162 142
0.125035 0.200715 -0.573243 155 135 106
0.0728182 0.243701 -0.596739 186 176 159
0.125793 0.219148 -0.574285 161 142 116
0.123925 0.249369 -0.572327 145 129 107
0.12552 0.126528 -0.507289 150 137 114
0.00557679 0.265113 -0.561397 162 151 130
0.187311 0.0401516 -0.591925 153 137 113
0.0427472 0.0205161 -0.648769 155 147 129
0.11208 0.0320837 -0.52829 215 207 193
0.152253 0.249749 -0.545982 141 126 105
0.082965 0.0321926 -0.640767 179 171 152
0.110371 0.285231 -0.555471 145 130 107
0.11462 0.231075 -0.572644 162 145 124
0.10643 0.292298 -0.550486 145 130 107
0.0493502 0.0562536 -0.494202 219 212 197
0.0177455 -0.218725 -0.66013 134 129 119
0.086739 0.315149 -0.525357 162 154 138
0.0851028 0.128784 -0.447889 196 191 182
0.152816 0.0136769 -0.620801 154 137 113
0.16383 -0.208533 -0.515823 142 140 131
0.155163 0.254572 -0.516774 148 138 121
0.148433 0.0176168 -0.615431 154 137 113
0.0673197 0.0339379 -0.643169 169 160 141
0.0266993 -0.167456 -0.534602 83 72 55
0.143138 0.0200043 -0.608953 141 126 102
0.132861 0.0272174 -0.59637 136 122 99
0.0253266 0.169421 -0.43842 211 210 201
0.0212233 -0.192875 -0.672475 140 137 128
0.123012 0.0646364 -0.584193 151 133 106
0.0713974 0.0289871 -0.646176 169 160 141
0.183507 0.0533709 -0.58836 153 137 113
0.121219 0.0749166 -0.581962 145 125 96
0.189213 -0.246194 -0.617837 121 113 100
0.119213 0.0847551 -0.579472 145 125 96
0.117513 0.172157 -0.577052 151 134 110
0.138179 -0.116146 -0.464927 196 191 180
0.185681 -0.00604372 -0.523837 168 150 125
0.119051 0.201476 -0.578817 148 127 97
0.120066 0.219397 -0.579986 161 141 111
0.0671892 -0.0287892 -0.577365 178 159 132
0.0494559 -0.110605 -0.551513 148 124 91
0.116514 0.256733 -0.576105 159 143 119
0.149263 -0.168085 -0.445404 113 110 102
0.103789 0.285103 -0.559845 154 140 120
0.0998565 0.292186 -0.555012 136 120 94
0.095285 0.299529 -0.548658 127 111 85
0.0664207 0.256653 -0.601237 164 149 126
0.142262 0.0203191 -0.622576 171 155 130
0.137044 0.0230744 -0.616501 137 123 98
0.22374 -0.0082939 -0.512056 181 168 149
0.11098 0.0963631 -0.584709 154 133 103
0.0240026 0.0231431 -0.562423 224 222 215
0.103898 0.202327 -0.579701 166 148 122
0.0882536 -0.144903 -0.484129 202 198 185
0.107868 0.138706 -0.580096 150 130 101
0.088379 -0.12044 -0.480851 189 187 178
0.10862 0.15011 -0.580684 141 121 93
0.112136 0.192141 -0.583712 162 145 119
0.113548 0.219217 -0.584679 166 148 122
0.113288 0.254905 -0.441628 178 171 157
0.0198965 0.136682 -0.56794 163 151 133
0.0351923 -0.183142 -0.678391 120 115 104
0.113461 0.227423 -0.584379 161 143 119
0.0435285 -0.0537473 -0.542934 129 104 75
0.0357809 -0.174628 -0.461228 151 151 143
0.130376 -0.199413 -0.651816 125 121 109
0.103395 0.0679631 -0.605502 164 143 113
-0.00522807 -0.204956 -0.475617 170 168 158
0.111252 0.250233 -0.581282 165 150 127
0.118458 0.157627 -0.523988 143 126 102
0.109393 0.256303 -0.579564 162 147 123
0.0670823 -0.00864028 -0.578419 196 177 149
0.103962 0.271069 -0.572381 159 143 120
0.100631 0.277971 -0.568378 154 140 120
0.0668413 0.0232801 -0.582975 159 143 118
0.144868 0.045599 -0.600497 161 143 116
0.0929153 0.292061 -0.559151 136 120 94
0.00845331 0.0464422 -0.60393 200 192 176
0.0880825 0.299277 -0.552977 132 116 90
0.0810939 0.306899 -0.545179 127 111 85
0.135667 0.0218475 -0.629035 159 147 125
0.130424 0.0247784 -0.623214 159 147 125
0.167816 0.0426564 -0.566688 178 166 146
0.0555672 0.0296975 -0.647079 155 147 129
0.178302 -0.0335594 -0.485575 234 230 220
0.108757 0.0666069 -0.59787 153 132 100
-0.00424626 0.242178 -0.509519 164 155 139
0.180482 -0.00686506 -0.528576 174 156 131
0.0239071 0.130488 -0.516819 166 156 138
0.178661 -0.0055086 -0.548607 162 144 119
0.000905812 -0.0455861 -0.527466 212 208 197
-0.00347902 0.240134 -0.527175 161 151 134
0.0256248 0.129003 -0.543496 168 157 136
0.106944 0.0766246 -0.595468 153 132 100
0.12746 0.149641 -0.570562 151 132 105
0.10193 0.105229 -0.587388 151 131 100
0.101017 0.128485 -0.586051 150 130 101
0.148992 0.26971 -0.520346 149 138 122
-0.00478741 -0.125882 -0.495059 218 216 206
0.106209 0.210167 -0.588887 166 148 122
0.0834911 0.142078 -0.468216 215 212 204
0.0798268 -0.218824 -0.662914 140 138 130
0.106457 0.218763 -0.588784 166 148 122
0.105824 0.233838 -0.5873 161 143 119
0.0264986 -0.177326 -0.672365 117 115 106
0.117699 -0.176143 -0.481813 86 76 61
0.104484 0.157665 -0.452348 207 202 193
0.105242 0.242469 -0.586438 165 150 127
0.103877 0.248819 -0.58497 165 150 127
0.0985974 0.258274 -0.437886 199 192 176
-0.0280097 -0.214482 -0.546597 137 133 123
0.0358175 0.109299 -0.513894 166 157 140
-0.0536516 -0.00659901 -0.597187 198 189 173
0.102315 0.256954 -0.582632 171 158 135
0.0968242 0.270814 -0.576069 160 143 118
0.026345 0.0289157 -0.65287 145 136 118
0.0935236 0.277766 -0.572183 160 143 118
0.0894783 0.284761 -0.567487 154 139 116
0.0799696 0.299225 -0.556533 128 115 89
0.072811 0.30686 -0.548428 148 135 114
0.112044 0.0319945 -0.618878 141 129 109
0.0797769 -0.21783 -0.659165 132 132 125
0.10323 0.217087 -0.581719 166 148 122
0.105341 0.047386 -0.609546 145 123 91
0.0972643 0.0862613 -0.598895 155 133 100
0.0958203 0.0964435 -0.596793 162 141 109
0.158913 -0.190569 -0.633944 122 118 108
0.0927741 0.138198 -0.591122 164 145 118
0.0066444 -0.206468 -0.602719 132 124 111
-0.0528088 -0.0396767 -0.591998 230 226 216
0.0939457 0.149705 -0.590609 154 136 110
0.0960078 0.171366 -0.592413 162 145 120
0.0981392 0.20051 -0.592819 174 159 136
0.0992361 0.217361 -0.591662 174 159 136
0.144363 -0.187208 -0.458524 130 128 119
-0.0120527 0.0129722 -0.635163 124 116 104
-0.00701474 -0.260885 -0.581864 134 128 117
-0.0114686 -0.00512944 -0.583954 183 175 163
0.206073 -0.0106249 -0.515398 195 183 164
0.146275 -0.181581 -0.546945 97 91 75
0.0988275 0.225468 -0.591141 168 153 132
0.0956605 0.166037 -0.448251 209 206 197
0.0980134 0.233242 -0.590192 168 153 132
0.0741591 -0.0472485 -0.51425 209 207 196
0.0971924 0.241063 -0.588415 171 156 134
0.098323 -0.0550121 -0.571005 180 158 127
0.0750762 0.0854098 -0.607054 166 146 115
0.181035 -0.222862 -0.559147 165 164 155
0.0359863 0.274532 -0.576764 151 139 116
0.177581 0.0268509 -0.543772 202 193 177
0.178968 -0.232929 -0.542885 129 128 123
0.0916919 0.263418 -0.582371 167 152 129
0.156677 -0.113331 -0.475519 171 159 140
0.0224566 0.123209 -0.482236 188 176 154
0.00596869 0.207741 -0.452457 198 195 185
0.0438185 -0.0353831 -0.537763 217 210 195
0.101592 0.306204 -0.509664 171 165 151
0.0850024 0.170222 -0.592624 162 145 120
0.0737448 -0.222758 -0.663828 141 136 126
0.143438 0.0182677 -0.593553 124 108 83
0.0977508 0.0476595 -0.615798 125 106 77
0.141672 -0.172038 -0.594608 103 91 68
0.135349 0.0810649 -0.595729 151 133 106
-0.0379689 -0.225319 -0.523162 132 127 117
0.0684153 0.0220939 -0.649554 169 160 141
0.144041 0.0265269 -0.602647 124 108 83
0.0211994 0.143929 -0.503777 163 153 135
0.121746 0.183703 -0.572937 159 143 120
0.0082836 -0.0622642 -0.54583 145 121 87
0.033758 0.0812439 -0.524268 180 173 157
0.0303104 0.291014 -0.523458 181 171 152
0.0411805 0.166029 -0.583637 152 137 114
0.084644 0.147963 -0.595326 154 136 110
0.0422585 0.193045 -0.438411 215 215 213
0.0861437 0.159131 -0.594671 168 148 117
0.10542 0.10466 -0.520394 138 123 101
0.0819237 -0.172623 -0.657739 125 120 105
0.0907235 0.217223 -0.595834 174 159 136
0.122378 0.284638 -0.479953 172 169 158
0.0872588 0.249009 -0.592058 171 156 134
0.0835022 0.262944 -0.585296 167 152 129
0.077701 0.277191 -0.578575 155 138 112
0.0374285 -0.0597422 -0.500785 228 230 222
0.147823 -0.237462 -0.439346 151 150 143
0.0204697 0.293195 -0.501824 190 181 163
0.149311 -0.253776 -0.631803 140 133 120
0.0643869 0.298755 -0.562376 143 130 108
0.0491009 0.0701921 -0.529862 203 201 192
0.0930726 0.0393846 -0.625467 153 141 120
0.0521084 -0.0378878 -0.509358 235 231 218
0.0184676 0.108304 -0.558219 168 157 136
0.114344 0.046194 -0.619955 165 148 121
0.0816525 0.0744062 -0.61144 154 134 102
0.043533 0.0210429 -0.535652 216 214 206
0.0317157 0.0992707 -0.563524 164 152 130
0.0313808 0.0958548 -0.578285 156 145 125
0.0446455 0.0168196 -0.574516 153 134 105
0.0392943 0.276398 -0.575969 148 133 108
0.126522 -0.0882715 -0.519382 131 103 68
0.00405174 0.252588 -0.482253 179 171 156
0.0768577 0.0924194 -0.605699 166 146 115
0.0230773 0.194543 -0.433716 213 212 205
0.0733822 0.112023 -0.600694 174 156 126
0.0900995 -0.180927 -0.458546 124 119 108
-0.0273857 -0.0430558 -0.546962 201 191 175
0.123391 0.0923567 -0.568885 148 129 100
0.0722398 0.122207 -0.598701 175 157 129
-0.0229028 -0.32298 -0.531026 133 127 116
0.0756977 0.156844 -0.598635 166 150 125
-0.00206158 0.056541 -0.613967 203 193 172
0.0769794 0.167714 -0.598794 168 151 123
0.125415 -0.181407 -0.42923 116 113 103
0.0677423 0.29722 -0.459226 195 185 168
0.138019 -0.0808538 -0.50562 141 105 61
0.0117232 0.0135425 -0.635598 84 80 72
0.115716 0.164533 -0.567219 151 134 110
0.0892388 0.100274 -0.464568 194 189 177
0.101505 0.264785 -0.440564 189 185 174
0.078387 0.247613 -0.592636 164 149 126
0.0765284 0.254285 -0.590588 164 149 126
0.135126 -0.24244 -0.441626 147 146 139
0.074414 0.26205 -0.588354 166 152 129
0.0716126 0.269542 -0.584398 166 152 129
0.182153 -0.0464796 -0.496009 182 164 142
0.0641839 0.283998 -0.576259 174 163 145
0.00922842 0.174478 -0.551815 160 148 127
0.0179886 -0.332183 -0.638546 102 96 82
0.13635 -0.169907 -0.508113 74 62 45
0.0818961 0.0452964 -0.628303 144 129 104
0.0343096 0.0578669 -0.621318 133 120 97
0.0751338 0.0633191 -0.620125 131 114 87
0.0668185 0.0850237 -0.455987 196 188 171
0.0891253 -0.0431248 -0.518969 214 212 201
0.149018 0.0613964 -0.602038 154 138 115
-0.0803472 -0.0374778 -0.569157 192 180 163
0.0429787 -0.207517 -0.479885 137 131 120
0.0693973 0.0809161 -0.613272 171 155 130
-0.0305069 -0.190899 -0.504139 115 110 98
0.0574937 0.105269 -0.600988 165 148 121
0.119861 0.0331851 -0.628065 157 146 125
0.0183261 0.179805 -0.579747 141 126 104
0.05735 0.115938 -0.599087 165 148 121
0.00963494 -0.196533 -0.473267 165 167 162
0.0981543 -0.0805341 -0.560016 183 169 145
0.0643867 0.164054 -0.59998 163 147 121
0.00685142 -0.108474 -0.532738 154 135 108
0.0268596 0.0413486 -0.646963 149 135 109
0.0604728 0.268817 -0.587849 162 147 123
-0.01782 -0.231608 -0.551198 124 117 106
0.0570894 0.277064 -0.582059 165 151 128
0.108118 -0.140453 -0.554741 131 109 77
0.047252 -0.0696419 -0.536496 166 151 130
0.0531755 0.283575 -0.577408 165 151 128
