ply
format ascii 1.0
comment Created by Open3D
element vertex 1234
property double x
property double y
property double z
property uchar red
property uchar green
property uchar blue
end_header
-1.7924 0.761216 0.0336562 128 104 81
-1.47928 0.968455 0.0164964 194 187 176
-1.63415 0.858462 0.192867 201 182 167
-1.47645 0.969947 0.0632162 203 197 183
-1.79735 0.780905 0.0313882 132 109 86
-1.47829 1.00597 0.0560379 193 188 179
-1.58482 0.673106 0.171399 205 192 173
-1.64918 0.719868 -0.12216 127 106 84
-1.76106 1.09287 0.0379186 167 161 154
-1.7982 0.788872 0.0329207 132 109 86
-1.66706 1.08453 0.158415 153 151 148
-1.57344 1.09766 -0.0203511 198 190 179
-1.47975 0.957142 0.0907238 230 229 222
-1.76195 1.05118 0.139756 136 123 109
-1.65251 1.0715 0.200983 182 178 171
-1.47934 0.928617 0.00423384 196 186 172
-1.57988 0.595248 0.159701 196 184 168
-1.77256 0.625404 0.074413 98 73 49
-1.4992 0.987189 0.121336 229 225 216
-1.50517 0.816718 -0.0724753 100 83 64
-1.56532 1.08277 -0.0953283 216 214 207
-1.59208 0.393903 0.0416199 156 173 178
-1.66952 0.820022 -0.128267 142 115 90
-1.50298 0.998495 0.120007 224 222 215
-1.50763 0.952199 -0.0804719 154 133 113
-1.76872 0.601344 0.0473673 109 84 60
-1.56007 0.567719 -0.0603027 82 60 37
-1.4742 0.881454 -0.000947523 181 164 142
-1.53064 0.607891 0.0841442 220 202 181
-1.79305 0.730874 0.0442944 116 94 72
-1.62829 0.371969 0.0244218 155 177 183
-1.55504 0.97389 0.174742 217 210 203
-1.6429 1.08291 -0.115239 221 208 193
-1.5025 0.572586 0.0170508 163 159 148
-1.64631 0.38577 -0.0202529 108 110 105
-1.5601 0.489304 0.0662699 147 141 132
-1.65791 1.11233 -0.0197458 91 65 38
-1.46403 0.852988 0.039303 177 170 159
-1.51849 0.899377 0.13885 229 222 211
-1.57342 0.970006 -0.107263 107 87 64
-1.53302 0.661398 -0.0885809 111 92 71
-1.53718 1.02848 -0.0893407 138 117 93
-1.80449 0.84107 0.0473523 129 101 76
-1.53379 0.667268 -0.0828688 111 92 71
-1.53801 1.04576 -0.0812036 140 119 95
-1.62902 0.392786 0.00777876 137 149 150
-1.70554 1.09663 -0.0293742 114 93 76
-1.47556 1.00896 0.00675522 204 197 184
-1.79383 0.771868 0.0424048 116 95 74
-1.59416 0.969001 -0.118679 120 94 66
-1.78701 1.0756 0.00466108 156 145 137
-1.57591 0.613239 0.152909 193 182 168
-1.47489 0.760758 0.0680797 188 182 170
-1.75514 0.683118 0.126577 87 67 48
-1.49812 0.764599 -0.0771352 81 67 47
-1.59521 1.09113 -0.0630018 211 200 189
-1.7858 0.672653 -0.0174838 131 101 72
-1.78055 0.686675 -0.0213275 125 94 66
-1.63359 0.383836 -0.0782412 133 143 142
-1.52979 0.754321 0.132976 212 199 186
-1.75096 0.385865 0.066226 167 172 168
-1.70265 0.386567 0.0897334 180 193 195
-1.68628 1.08111 -0.0742192 156 138 124
-1.70522 0.38683 0.0635064 175 186 187
-1.75125 0.556908 0.059256 103 78 54
-1.66907 0.385627 -0.0101255 79 75 63
-1.49606 0.749212 0.00675923 192 181 166
-1.59348 1.04987 0.187486 214 205 193
-1.54856 0.752301 -0.102196 130 108 86
-1.58663 0.682431 0.171726 212 201 184
-1.54488 0.377971 -0.0985561 118 129 128
-1.53753 0.658407 0.119993 87 65 41
-1.77064 1.06448 0.143318 142 135 123
-1.79477 0.791343 0.0517759 121 98 75
-1.71314 1.08758 -0.0364237 121 102 86
-1.74929 0.385722 0.0796524 169 175 171
-1.73036 0.378235 0.095334 131 153 162
-1.72089 1.08609 -0.0969166 153 132 113
-1.71961 0.717707 -0.0962903 138 109 79
-1.70858 0.369276 -0.0940909 57 49 39
-1.55141 0.790198 0.170409 208 201 193
-1.62563 1.12182 0.0775523 218 209 195
-1.52024 0.607725 -0.0366066 145 131 115
-1.58149 0.569996 0.140404 174 167 157
-1.51404 0.809056 0.143947 207 199 189
-1.55222 1.09757 0.0214322 228 218 207
-1.61184 0.381131 0.0504309 156 173 178
-1.50867 0.609987 0.0395836 207 194 174
-1.68352 0.779989 0.175614 155 135 117
-1.76654 0.624404 0.0790323 93 68 45
-1.53263 0.544287 0.0346099 221 202 186
-1.71098 0.7369 0.162169 131 113 98
-1.47949 0.755455 0.0899476 204 199 188
-1.80273 0.81766 0.0516059 113 90 66
-1.56648 0.622124 -0.0946433 110 86 62
-1.54656 0.387969 0.0944982 156 167 168
-1.63463 1.13601 0.0834017 201 194 182
-1.7297 0.671261 0.140244 101 85 70
-1.47881 0.75947 -0.0303818 184 176 163
-1.60876 0.695256 -0.123505 116 97 72
-1.61222 1.06156 -0.122472 136 109 81
-1.76991 0.623678 0.068246 98 73 49
-1.77617 0.654769 0.0670791 99 74 52
-1.61479 1.06682 -0.131379 136 109 81
-1.55405 1.09548 0.0518436 228 218 207
-1.66925 0.806794 -0.128282 141 114 89
-1.78754 0.734369 0.0640186 110 87 65
-1.51531 0.566949 0.0517428 192 182 168
-1.46182 0.832265 -0.00685938 185 179 165
-1.67586 1.12153 0.00426324 115 99 79
-1.62972 0.387033 0.0623545 168 183 188
-1.54779 0.379471 0.0628925 139 155 158
-1.47035 0.828665 0.0210892 194 188 178
-1.47961 0.771916 0.0509028 190 181 168
-1.7947 0.801286 0.0614082 107 86 63
-1.76078 0.382382 0.0889388 105 100 86
-1.49024 0.835104 -0.0508445 161 146 127
-1.50876 0.904625 -0.0850423 124 102 83
-1.70328 1.07584 0.143367 173 166 159
-1.49019 0.83071 0.109749 216 210 200
-1.46265 0.845237 0.000200242 194 187 172
-1.5588 0.515178 -0.024296 117 102 85
-1.73227 0.532594 0.0833226 79 52 30
-1.52027 1.00937 -0.0662491 149 131 110
-1.72149 0.843702 0.170959 118 96 75
-1.51423 0.655386 -0.0664085 129 112 92
-1.54359 0.539227 -0.00157773 154 130 106
-1.61862 0.840791 -0.127899 138 111 87
-1.5516 0.379903 -0.0672088 132 147 149
-1.67521 1.13239 -0.00576964 91 62 33
-1.50924 0.842825 0.137416 212 203 193
-1.52615 1.04961 0.154402 218 214 207
-1.46898 0.865863 0.059507 167 159 146
-1.708 1.11137 -0.00527257 99 76 56
-1.4813 0.735769 -0.0031213 169 160 146
-1.75408 0.580744 0.081009 113 89 70
-1.48952 0.701252 0.049715 209 202 190
-1.48849 0.882469 0.109312 214 205 197
-1.5848 1.08816 0.159472 201 200 196
-1.77561 0.67633 0.076777 100 75 53
-1.78017 0.706448 0.0754805 106 80 64
-1.5289 1.07593 -0.0314016 223 209 198
-1.68001 1.11758 0.0665339 116 105 96
-1.62978 0.944465 -0.130989 130 104 79
-1.67228 0.386469 0.104038 183 193 193
-1.66943 1.1306 0.01646 145 132 117
-1.65876 0.394372 0.0147686 82 81 71
-1.70023 0.991323 -0.121683 133 103 76
-1.77682 0.707796 0.085973 94 70 48
-1.7781 0.717823 0.0855059 102 80 62
-1.78825 0.785017 0.0822982 101 78 57
-1.75516 0.383476 -0.0729302 60 51 36
-1.5078 0.61526 0.0622549 200 189 172
-1.75753 0.382954 0.109079 97 93 77
-1.63219 0.383889 0.125928 182 195 196
-1.62278 0.995355 -0.122267 132 106 77
-1.52098 0.621461 -0.0581619 132 116 96
-1.60828 0.770971 -0.139443 130 105 80
-1.67011 0.386581 0.11793 183 193 193
-1.51212 0.651931 -0.069181 129 112 92
-1.51797 1.01577 -0.0711679 159 141 120
-1.54373 0.385056 0.0843553 156 167 168
-1.67036 0.384384 0.0093677 102 102 93
-1.68251 1.13522 0.00977373 138 123 106
-1.53172 1.03847 -0.097445 120 102 80
-1.67129 0.378157 0.0746165 119 137 144
-1.59535 1.01379 -0.126996 127 100 70
-1.67438 0.746632 0.173565 167 151 138
-1.68179 1.1211 -0.0114977 84 55 25
-1.62496 0.593214 0.151288 186 164 144
-1.67258 0.387441 -0.0123475 79 75 63
-1.60252 0.387612 0.123332 179 191 191
-1.54235 1.02317 -0.0834457 103 83 59
-1.53787 0.656057 -0.0818328 113 92 69
-1.72775 0.761247 -0.105669 137 107 78
-1.72697 0.593525 -0.0714315 124 88 53
-1.47485 0.933419 0.0952275 215 215 206
-1.77003 1.06782 -0.0662962 145 124 109
-1.46806 0.840642 0.0275059 187 181 170
-1.75251 0.604194 0.102535 85 60 36
-1.77904 0.875664 -0.059354 152 135 110
-1.57582 0.913529 0.181456 222 214 201
-1.54738 0.852122 -0.0940517 111 92 69
-1.80608 0.990014 0.0255272 119 93 69
-1.67055 0.370517 0.148021 146 162 164
-1.75602 0.61516 0.101811 92 72 56
-1.48574 0.694569 -0.0443424 167 151 131
-1.48868 1.05999 -0.0424762 190 174 154
-1.54378 0.523036 -0.02346 117 98 78
-1.75687 0.556178 0.0225314 100 71 45
-1.80629 0.975554 0.0243109 120 92 66
-1.60891 0.641101 -0.123021 105 86 63
-1.61396 1.02674 -0.12547 126 101 73
-1.61312 1.029 -0.1276 126 101 73
-1.46243 1.01252 0.0442635 193 188 179
-1.78517 0.786834 0.0925543 101 78 57
-1.74384 1.0037 0.158588 114 102 88
-1.74216 0.386006 0.123581 163 166 159
-1.57441 1.07983 0.154405 201 195 187
-1.65044 0.785388 -0.128172 137 112 89
-1.59694 0.386615 0.139857 164 174 172
-1.78726 0.958481 -0.0480311 134 103 75
-1.71244 0.6451 -0.0879655 125 89 54
-1.73884 0.582015 0.116093 75 51 27
-1.71768 0.381799 0.102323 189 201 202
-1.74627 1.05091 -0.0936917 133 104 81
-1.77284 0.622473 -0.0146658 121 89 61
-1.53669 0.578324 -0.0445233 129 108 85
-1.75794 0.648574 0.111279 81 57 34
-1.70627 0.890474 -0.119135 147 117 83
-1.47566 0.897806 0.0843059 210 206 195
-1.72383 0.387092 -0.00888675 120 119 111
-1.75276 1.0791 -0.0306699 135 121 107
-1.777 0.760365 0.104657 122 99 83
-1.80683 0.960881 0.0267846 120 92 66
-1.48399 0.686416 -0.0356405 183 178 167
-1.49023 1.05208 -0.0372496 179 168 153
-1.66258 1.0388 -0.135894 130 105 81
-1.50154 0.709099 0.0959153 196 178 159
-1.65935 0.662386 -0.117333 134 104 75
-1.79119 0.955451 0.102953 92 66 42
-1.78006 0.77953 0.103545 104 83 64
-1.58368 0.639098 0.165252 191 181 166
-1.79893 0.804867 0.0464686 107 86 63
-1.48445 0.755737 0.0216529 200 191 177
-1.74674 0.628116 0.124616 86 65 44
-1.46965 0.830824 0.0161991 187 183 172
-1.47953 0.772845 0.0225582 199 192 178
-1.74927 0.639129 0.123812 86 65 44
-1.78783 1.07763 0.0263539 169 165 160
-1.50124 0.781539 0.0963957 214 198 183
-1.79025 0.847629 0.112321 94 67 41
-1.58882 1.12022 0.0108036 217 205 191
-1.55462 0.621441 -0.0880064 109 86 62
-1.46912 0.950932 0.0565525 179 168 154
-1.47943 0.789674 0.0570597 189 181 169
-1.65198 0.375258 0.125114 141 160 166
-1.50069 0.723462 0.0551478 219 204 187
-1.58382 0.479821 -0.0193604 105 92 79
-1.76346 0.913357 0.150259 102 78 56
-1.77985 0.81264 0.112124 92 70 47
-1.56544 0.93248 -0.109511 116 95 70
-1.72752 0.606843 0.140028 108 88 72
-1.73449 1.0864 0.113791 182 175 167
-1.62359 0.841036 0.19018 201 182 167
-1.64435 1.09433 -0.0604474 172 156 143
-1.62617 0.842725 0.197444 201 182 167
-1.67608 0.894994 -0.128084 147 121 95
-1.53756 0.643086 -0.0665526 114 91 68
-1.74397 0.748428 0.151717 104 86 70
-1.7416 0.640617 0.136217 83 64 46
-1.50135 0.771847 0.119847 219 211 199
-1.74896 0.673399 0.133622 85 66 47
-1.60558 0.610555 -0.116832 117 95 71
-1.55428 0.711994 0.145383 205 193 179
-1.56103 1.08204 0.145178 200 193 185
-1.50123 0.714234 0.00394403 207 186 164
-1.68444 0.68974 0.166622 148 127 107
-1.51841 1.07693 -0.0717083 212 200 181
-1.51453 0.725165 -0.0709141 117 96 73
-1.77294 0.804753 0.124192 96 75 54
-1.51124 0.686814 -0.060711 158 141 121
-1.51965 1.07253 -0.061043 177 159 137
-1.7266 1.06835 -0.0963911 148 128 114
-1.61961 1.04801 0.18994 203 197 186
-1.53153 0.794486 0.148428 208 203 196
-1.70542 0.60924 0.156618 144 131 115
-1.49104 0.691931 0.0796766 217 210 198
-1.50008 0.795466 -0.0448063 159 140 118
-1.68947 0.742715 0.174054 152 133 115
-1.56722 0.783144 0.177857 212 203 192
-1.73949 0.793126 -0.0921293 137 102 72
-1.79065 1.02391 -0.0427154 129 102 79
-1.6254 0.528504 -0.0878782 114 89 65
-1.58841 0.662106 0.164579 205 192 173
-1.55724 0.890649 0.176531 231 225 210
-1.64363 0.656373 0.165629 177 161 147
-1.77732 1.07837 0.110836 179 173 165
-1.76977 0.713175 0.10878 93 69 47
-1.53462 0.580902 -0.0278661 140 121 98
-1.61756 0.385567 -0.0231095 153 168 171
-1.56609 0.495706 -0.0152577 114 102 87
-1.73695 0.381705 0.0870558 179 191 193
-1.69277 1.08204 -0.065475 156 138 124
-1.73829 0.676282 0.146785 109 94 80
-1.5167 0.881199 0.141988 230 223 215
-1.49114 0.789864 0.120064 218 210 197
-1.49184 0.795932 0.114017 211 205 196
-1.6523 1.13212 0.0202548 177 179 171
-1.68581 0.844926 -0.121947 141 112 83
-1.46226 0.89562 0.0508003 178 169 157
-1.5708 1.08736 0.00445453 223 209 195
-1.59323 0.37306 0.119815 154 171 175
-1.60049 0.522658 0.122209 161 154 139
-1.56667 0.710816 0.152479 227 207 185
-1.58861 1.09397 -0.0172185 210 191 176
-1.62269 0.678607 0.170251 196 174 152
-1.54845 1.03389 -0.10597 131 110 86
-1.57919 0.387652 -0.0110748 147 161 164
-1.58603 0.757566 -0.122475 105 86 63
-1.73428 0.714069 -0.0821761 130 95 64
-1.71613 0.664594 -0.0939166 130 96 62
-1.66453 1.08489 -0.112004 195 183 174
-1.5832 0.898821 -0.118028 115 87 57
-1.57122 1.099 0.0282086 226 209 196
-1.70885 0.383178 0.0861028 180 193 195
-1.76843 0.819727 0.136579 87 66 46
-1.59103 0.383019 -0.00299467 154 169 173
-1.60778 0.538815 -0.0820201 111 88 68
-1.55866 0.684912 -0.0969488 106 83 60
-1.72247 0.560329 0.117657 85 65 48
-1.55244 0.698651 0.149787 206 195 183
-1.52799 1.07581 0.132905 213 209 202
-1.52126 0.696854 0.132187 216 204 192
-1.71877 0.669184 0.163047 141 126 114
-1.74527 0.840466 0.158872 141 120 98
-1.73117 0.701918 0.158809 130 114 99
-1.75366 0.875289 -0.0825988 138 109 83
-1.66153 0.677355 -0.112872 137 118 95
-1.57654 0.940931 -0.128008 135 107 83
-1.72801 0.938793 0.166456 120 100 81
-1.49521 0.951706 -0.0627231 159 143 123
-1.49825 0.60513 0.0658985 181 173 159
-1.73962 0.745497 0.15508 108 90 73
-1.62955 0.656445 0.165778 191 175 157
-1.7276 0.829762 -0.101862 131 99 68
-1.74546 0.765685 0.152895 106 87 71
-1.50137 0.643302 0.0681648 197 183 165
-1.55935 1.06285 -0.0993604 142 119 93
-1.55478 0.685316 -0.0989881 108 85 63
-1.59028 0.383669 0.0163471 160 176 181
-1.74267 1.0852 -0.0143268 119 102 87
-1.58134 0.75846 0.178264 204 197 184
-1.55139 1.08681 -0.0264008 220 210 199
-1.73818 1.07307 0.16086 164 157 148
-1.74494 0.380826 0.0974218 171 177 173
-1.75879 1.08055 -0.0527242 167 151 141
-1.47012 0.680903 0.0165275 211 207 197
-1.47224 1.05787 0.0173886 207 202 192
-1.79189 0.816634 -0.035058 130 101 74
-1.7526 0.795574 0.150018 102 83 66
-1.55419 1.07936 -0.0996468 205 196 180
-1.75674 0.826212 0.147824 95 75 54
-1.69344 0.38771 -0.00574106 78 72 59
-1.50873 0.60911 0.0734858 205 193 175
-1.61603 0.757682 0.175519 214 193 174
-1.51489 0.714429 0.118751 213 203 191
-1.71876 0.730344 0.172527 131 113 98
-1.72211 0.679358 0.160755 134 118 105
-1.72616 1.04393 0.162176 123 111 98
-1.46788 0.904054 0.055883 199 191 180
-1.54124 1.08804 0.0976349 231 216 206
-1.72132 0.741487 0.171402 115 99 85
-1.72368 0.764596 0.169858 129 109 90
-1.57325 0.488159 0.00754073 124 110 94
-1.6097 0.740405 0.179879 214 193 174
-1.72548 0.775729 0.168935 129 109 90
-1.47327 0.880851 0.0558612 166 155 143
-1.76614 0.654596 -0.0338067 122 89 60
-1.76646 1.06 -0.0839831 138 118 103
-1.79347 0.762179 0.0120386 134 105 79
-1.80351 0.821397 0.0027371 139 113 90
-1.47416 0.904414 -0.00631095 207 199 185
-1.62842 0.781405 0.180462 207 184 165
-1.53815 1.03856 -0.0818382 138 117 93
-1.53016 0.673686 -0.0831834 111 92 71
-1.76049 0.91394 -0.078728 145 113 88
-1.47486 0.898556 -0.0181709 197 189 174
-1.7941 0.747922 0.0283985 127 102 78
-1.7906 0.737005 0.0601936 120 104 81
-1.64395 1.15551 0.0151186 145 130 114
-1.47292 0.95151 0.0848779 220 220 211
-1.79528 0.736847 0.0185769 126 97 66
-1.53541 0.621592 -0.0525676 119 101 79
-1.47305 0.889369 0.0166127 189 179 165
-1.79264 0.761513 -0.00423159 136 106 78
-1.47424 0.883532 0.0843303 210 206 195
-1.763 0.655942 0.102714 93 72 52
-1.73109 0.796527 0.16661 120 100 81
-1.68538 1.09718 0.100369 189 182 174
-1.73276 0.806368 0.166932 120 99 80
-1.60027 0.451383 0.0510384 162 153 139
-1.7337 0.81852 0.165045 120 99 80
-1.60244 0.679798 -0.112478 139 108 78
-1.80889 0.881987 0.0506966 125 98 71
-1.70651 0.587919 0.136417 88 68 49
-1.68285 0.835127 0.190934 159 144 130
-1.49165 1.07172 -0.0303548 200 188 172
-1.48359 0.707768 -0.0308849 149 144 131
-1.48457 0.870601 -0.0311756 200 190 172
-1.54089 0.704149 -0.10582 103 87 68
-1.75533 0.74043 -0.0858018 124 94 67
-1.754 0.380182 -0.0861971 54 42 27
-1.71116 0.700612 -0.107057 134 105 73
-1.71788 1.03671 -0.106818 134 101 71
-1.67115 0.840811 -0.134348 143 116 92
-1.50764 0.734027 -0.0890032 103 86 66
-1.53088 1.08575 0.0689302 221 214 205
-1.52219 0.37164 0.0674109 145 157 156
-1.48531 0.835352 -0.0482563 161 146 127
-1.77003 0.367153 -0.0472866 85 77 64
-1.77362 0.730226 -0.0498113 128 95 66
-1.60585 0.883978 0.194363 209 194 176
-1.52175 0.375032 0.134065 132 142 141
-1.58362 0.681683 0.166983 212 201 184
-1.47273 0.849405 -0.0603195 165 156 139
-1.64401 0.384404 0.110696 180 193 194
-1.47994 0.760549 -0.00148239 170 162 149
-1.76438 0.578524 0.0384723 102 75 50
-1.49219 0.760647 0.0684225 188 168 145
-1.76335 0.734924 -0.0600372 129 97 67
-1.75716 0.378053 -0.0616506 62 56 42
-1.76324 0.377265 -0.0416211 68 62 49
-1.47845 0.773055 -0.0426939 178 171 156
-1.65338 0.661491 0.170685 179 161 145
-1.75731 1.03662 -0.0771204 137 102 80
-1.75251 0.65878 -0.0742508 115 84 56
-1.79256 0.788273 0.0868551 101 78 57
-1.49795 0.791733 -0.0176233 190 180 167
-1.78673 0.742283 -0.0427888 130 99 72
-1.53102 1.08491 -0.0772105 220 213 202
-1.52553 0.7477 -0.0767559 96 75 53
-1.51754 0.370649 -0.0793894 108 118 116
-1.688 0.989286 0.191647 163 147 131
-1.48239 0.799967 0.0684979 200 189 171
-1.76932 0.366822 -0.0200071 89 80 66
-1.80366 0.884094 -0.00564081 138 108 77
-1.71323 1.07704 -0.0728425 143 126 110
-1.48998 0.659848 0.0199898 178 167 151
-1.50733 0.724555 -0.0598919 180 165 146
-1.57878 0.671278 0.15326 219 196 170
-1.50859 0.727143 -0.0793677 103 86 66
-1.49051 0.661216 0.0398413 200 193 182
-1.53981 0.94307 0.16696 216 211 205
-1.72693 0.768925 0.170959 129 109 90
-1.79316 0.73984 0.0497951 116 94 72
-1.65961 1.07854 -0.123455 195 183 176
-1.53089 0.626217 -0.0599574 124 105 82
-1.76492 0.611251 -0.042343 122 90 60
-1.75751 0.621029 -0.0517702 122 88 55
-1.68219 0.877531 0.189515 161 145 129
-1.59119 0.670692 0.158599 219 196 170
-1.79248 1.07403 -0.00923865 145 126 112
-1.78699 0.696589 -0.00983822 124 94 67
-1.77033 0.632669 -0.0379987 123 90 60
-1.59676 0.968227 0.191833 217 208 196
-1.77519 0.642446 -0.0337986 122 89 60
-1.49624 0.6555 0.00937792 154 139 119
-1.68315 0.822538 -0.12461 136 107 79
-1.79016 1.07625 -0.0220298 150 135 126
-1.78927 0.698945 -0.0237166 125 94 66
-1.5309 0.659275 0.14887 177 169 157
-1.55272 0.508213 0.0024545 128 117 102
-1.6252 0.905492 -0.138789 138 112 87
-1.7627 0.690984 0.120907 91 69 48
-1.79051 0.787006 -0.0290126 134 104 77
-1.473 0.844954 0.00400335 175 168 156
-1.52474 0.742738 0.13886 212 199 186
-1.64442 0.384966 -0.0325397 116 120 116
-1.74463 0.69048 -0.0803801 129 98 69
-1.75014 1.04327 -0.0847627 133 104 81
-1.76757 0.371258 -0.00907865 85 75 61
-1.69762 0.385762 -0.0746494 92 90 80
-1.68732 0.386891 0.0222914 158 163 160
-1.47438 0.680308 -0.0029819 180 176 165
-1.47716 1.04192 0.00108986 207 202 192
-1.67588 0.385199 -0.0953408 111 114 108
-1.70705 1.09566 0.0956728 161 154 145
-1.75849 1.08927 -0.0604763 166 151 140
-1.47302 1.0155 0.0614065 222 219 210
-1.46816 0.876024 -0.00685155 191 182 167
-1.75379 0.590305 -0.036207 130 90 50
-1.50715 0.605746 0.0840145 203 193 177
-1.61836 0.752232 0.17827 214 193 174
-1.77063 0.611694 -0.0217321 127 93 60
-1.79288 0.735744 0.030774 122 97 73
-1.47543 0.957857 -0.0285325 212 206 193
-1.53253 0.580418 0.0739024 213 193 171
-1.53741 1.06807 -0.0990307 113 94 74
-1.66327 0.68138 0.171957 165 145 127
-1.69119 0.720994 0.172095 152 134 117
-1.76609 0.66735 0.12323 104 86 69
-1.79112 0.750445 0.0751544 113 90 67
-1.47235 0.966619 0.0673222 203 197 183
-1.79294 0.705133 -0.00736707 124 92 65
-1.76524 1.07832 0.103745 181 174 167
-1.4845 0.876608 -0.0313606 200 190 172
-1.7859 1.07192 0.0742579 155 145 134
-1.65354 1.08545 -0.0891765 196 183 171
-1.79861 0.775364 -0.00542416 137 102 68
-1.55551 0.596345 0.123518 190 177 164
-1.80364 0.874049 0.0549299 128 101 75
-1.47965 0.812772 0.0335026 201 195 185
-1.46765 0.930799 0.0916997 207 205 194
-1.4785 0.934792 0.102269 210 208 201
-1.78055 0.767903 -0.0522217 129 97 70
-1.75412 0.691738 0.126281 87 67 48
-1.74127 1.08347 0.124233 182 177 170
-1.57793 0.389924 0.135548 155 165 163
-1.75493 1.0832 0.0735503 162 157 151
-1.48066 0.812769 0.00349999 192 185 173
-1.78443 0.612485 0.0403282 110 92 73
-1.76354 0.373374 0.00317578 87 78 65
-1.7109 0.384677 0.0615673 175 186 187
-1.76786 0.817329 0.128662 96 75 54
-1.57638 0.48664 0.0532211 165 147 130
-1.55471 0.662216 0.149805 197 183 168
-1.56757 0.726119 0.171732 212 201 186
-1.70992 0.386867 -0.0458372 73 66 51
-1.4968 0.714406 -0.0414224 169 154 134
-1.69828 0.378377 0.124498 141 159 163
-1.58338 0.598735 -0.0985981 120 97 72
-1.58896 0.944555 0.190382 217 208 195
-1.72534 1.09108 -0.0434629 145 128 116
-1.77159 0.591743 -0.00565121 119 87 57
-1.57112 0.869953 0.178504 230 218 200
-1.69419 1.03567 0.182406 140 126 110
-1.68736 0.835747 0.181673 159 144 130
-1.72641 1.08618 0.119645 180 175 168
-1.7737 0.601842 -0.00449511 118 87 58
-1.77638 0.611737 -0.00282775 118 94 71
-1.6824 1.12616 0.0213495 167 164 158
-1.52969 1.07364 -0.0731172 167 150 130
-1.55635 0.836034 0.160117 217 209 198
-1.79 1.08663 -0.00370865 152 139 128
-1.78138 0.651272 -0.000279889 116 90 62
-1.59128 0.782527 0.172983 226 209 190
-1.62627 0.605599 -0.110199 122 94 69
-1.59769 1.15007 0.0151358 199 184 166
-1.80025 1.05659 0.00355467 144 117 104
-1.79155 0.703616 0.00488891 121 93 69
-1.4841 0.78334 0.0742303 204 193 176
-1.76358 0.604121 -0.0197624 127 94 61
-1.48593 0.951701 -0.031168 200 190 174
-1.80412 0.768561 0.0105092 134 106 79
-1.7009 0.647792 0.155538 124 105 85
-1.48498 0.998728 -0.0415314 155 139 121
-1.80141 0.810576 0.0688731 127 101 77
-1.53069 0.60238 0.0920483 220 202 181
-1.55425 0.735013 -0.096273 107 85 61
-1.56571 0.539801 0.108765 181 168 155
-1.63863 0.388628 -0.0894508 143 152 149
-1.76647 0.582253 0.00384986 113 82 54
-1.50892 0.71485 -0.0596243 125 103 80
-1.48932 0.674191 0.021235 194 185 173
-1.51572 1.07859 -0.0594029 217 207 191
-1.55773 0.548761 0.100454 184 165 148
-1.58665 0.625463 -0.100602 133 101 71
-1.77477 0.602373 0.00935869 113 82 54
-1.47817 0.910138 0.0682893 186 177 166
-1.61944 0.389416 0.0374223 140 155 156
-1.48589 0.623972 0.00972417 188 174 155
-1.74526 0.575646 -0.0370441 138 99 58
-1.74832 0.55722 0.0706119 97 71 48
-1.47713 0.922824 0.038726 191 183 173
-1.79739 0.737632 0.00900586 126 97 66
-1.61365 1.08023 -0.113113 197 192 185
-1.60361 0.709244 0.183944 207 197 180
-1.78334 0.660412 0.0102891 117 86 60
-1.70799 0.386463 -0.0440408 73 66 51
-1.68817 1.08678 0.14222 175 169 161
-1.70299 0.386779 -0.0696912 78 72 59
-1.48971 0.840283 -0.0479325 167 152 134
-1.47442 0.828151 0.0334819 194 188 178
-1.59409 0.83422 0.182329 220 211 196
-1.80105 1.0671 0.013648 139 118 98
-1.79084 0.693487 0.0162101 120 90 64
-1.53142 0.842345 -0.0936206 110 91 70
-1.48101 0.901144 -0.0648013 132 126 116
-1.804 1.08151 0.00783664 163 154 142
-1.47791 0.900175 0.0914723 210 203 194
-1.6781 0.658414 -0.106138 121 92 63
-1.49456 1.02424 -0.0448565 190 176 158
-1.49018 0.672633 -0.0410553 167 153 135
-1.57805 0.664409 0.150032 208 194 178
-1.7981 0.725822 0.0199549 122 97 73
-1.47955 0.899712 -0.0369439 181 169 150
-1.47933 0.911286 -0.00126177 204 194 180
-1.61945 0.388073 -0.0299837 148 162 164
-1.79741 0.732914 0.0198288 126 97 66
-1.80114 0.750283 0.0207209 125 95 65
-1.74368 0.851375 -0.0872691 136 106 77
-1.69127 0.800608 0.178855 159 140 122
-1.48652 0.951874 -0.0409946 188 177 160
-1.80523 0.764514 0.0231194 124 101 75
-1.71628 0.727047 -0.100926 137 101 69
-1.69411 0.38657 -0.0261089 77 72 58
-1.57201 0.754905 -0.11003 114 92 68
-1.63301 0.39086 -0.0745208 133 143 142
-1.55611 0.723204 -0.108739 127 105 83
-1.56661 0.575119 0.124741 191 180 166
-1.6318 1.16527 0.0152155 121 97 73
-1.51384 0.944942 0.136924 221 216 210
-1.53072 1.06232 -0.0776469 159 141 121
-1.52556 0.678737 -0.0776635 138 118 96
-1.6063 0.72631 0.18901 205 197 183
-1.6006 0.703979 0.166825 214 193 170
-1.78725 0.703322 0.0238596 119 94 71
-1.78259 0.656151 0.021541 115 88 62
-1.79218 0.700386 0.0283359 119 94 71
-1.72171 0.75438 0.170824 136 118 101
-1.50558 0.710312 0.0678792 215 198 179
-1.51307 1.08345 0.0685431 218 214 207
-1.48986 0.771188 0.0594913 197 187 173
-1.47813 0.899527 0.011219 188 178 164
-1.79578 0.716254 0.030026 119 94 71
-1.80281 1.08175 0.0285719 166 156 147
-1.58453 0.954393 -0.115583 107 79 48
-1.79999 0.740684 0.0545734 120 104 81
-1.75928 0.633305 0.0975042 82 56 32
-1.71697 0.379088 0.114105 144 165 173
-1.73509 0.379135 -0.0944664 57 46 35
-1.74313 1.04174 -0.0938096 133 104 81
-1.77316 0.624633 -0.00685138 121 89 61
-1.68388 0.386535 0.150281 193 202 201
-1.72621 1.10795 0.0202449 182 178 168
-1.56466 0.503986 0.0689743 157 146 136
-1.63839 0.869539 -0.133783 143 117 93
-1.58207 0.941297 -0.116895 110 81 50
-1.56722 0.520663 0.112651 173 162 149
-1.77752 0.623246 -0.0242737 124 93 64
-1.71822 0.382528 0.0851483 179 192 194
-1.71435 0.382677 0.119448 144 165 173
-1.77787 0.62184 0.034498 112 82 56
-1.47683 0.888026 0.0540183 165 154 142
-1.80025 0.749355 0.0323706 123 96 68
-1.80332 0.763043 0.0325611 124 101 75
-1.4966 0.770389 0.0801046 188 168 145
-1.50915 0.952259 0.13218 219 214 207
-1.6822 0.776649 -0.121017 142 116 86
-1.73073 0.382885 0.0170133 136 146 145
-1.51922 0.381175 0.0709818 136 148 146
-1.48051 1.07259 -0.0138144 181 174 162
-1.46404 0.888597 0.0334263 166 156 143
-1.59704 0.37207 0.00339825 152 173 179
-1.64921 0.390566 -0.043583 121 126 122
-1.49474 0.890169 0.113654 210 202 194
-1.50718 1.03183 -0.0444602 150 135 117
-1.65212 0.390643 0.103179 180 193 194
-1.50445 0.741262 -0.0426467 199 181 160
-1.59338 0.47038 0.0687794 146 137 124
-1.56515 0.783129 -0.105897 111 86 57
-1.56773 0.809364 0.165158 213 203 191
-1.66748 0.870957 0.187175 178 170 162
-1.81628 1.07251 0.0499261 140 122 107
-1.54225 0.749193 -0.0992069 117 102 81
-1.75619 0.553221 0.0234771 100 71 45
-1.56012 0.772347 0.174131 212 203 190
-1.72593 0.618659 -0.0713563 122 89 55
-1.66934 1.13742 -0.0015825 158 146 132
-1.50301 1.0206 0.125297 209 204 195
-1.52104 0.535922 0.0270437 173 165 152
-1.52802 0.687832 0.12657 216 204 192
-1.76713 0.644967 0.0889688 95 71 49
-1.78759 0.703293 0.0343391 119 94 71
-1.78107 0.655518 0.035345 114 87 62
-1.67174 0.688528 0.167674 165 145 127
-1.50709 0.64371 -0.0149663 149 134 115
-1.48809 0.828925 0.0500169 190 180 170
-1.50558 0.37695 0.102139 151 164 163
-1.79094 0.69939 0.0385257 119 92 68
-1.55457 0.521494 0.0833797 161 156 148
-1.51013 0.877131 -0.08279 127 106 86
-1.64638 0.375714 0.0698478 120 140 146
-1.56031 0.486643 0.0459086 145 133 120
-1.65894 1.13121 0.0680489 171 165 157
-1.53782 0.997522 0.157428 221 212 202
-1.62651 0.883631 0.194697 194 182 169
-1.57258 0.646059 -0.115509 104 85 66
-1.57999 1.02516 -0.119385 148 124 99
-1.52583 0.537853 0.066324 207 199 187
-1.79297 0.707158 0.0394659 119 94 71
-1.77589 0.773077 0.110231 93 70 47
-1.48334 0.852637 0.000716738 190 181 167
-1.79442 0.715086 0.039959 123 97 70
-1.63766 1.07149 -0.112161 186 173 164
-1.80278 0.769677 0.0434207 121 100 77
-1.68513 0.917552 -0.12945 143 113 83
-1.79822 0.800319 0.0389459 129 106 83
-1.49106 0.707916 -0.00677884 179 169 153
-1.49435 1.08598 -0.0100147 208 201 191
-1.55933 0.579953 0.131231 193 183 169
-1.7111 0.800197 0.171372 139 118 98
-1.49024 0.737159 -0.00228124 182 172 156
-1.51713 0.373907 -0.0632444 125 136 135
-1.64464 0.824121 0.188993 190 176 165
-1.77089 0.364727 -0.0315336 93 85 71
-1.58598 0.392671 -0.0697987 146 160 161
-1.75708 0.555654 0.0346792 103 73 42
-1.7266 0.814783 -0.10118 127 95 64
-1.76206 0.563524 0.0377727 106 78 53
-1.58401 1.0082 -0.122797 130 103 75
-1.67014 0.889802 -0.134087 147 121 95
-1.7287 1.08401 0.132284 178 174 168
-1.72102 0.731646 0.165219 132 116 101
-1.77365 0.604204 0.0429077 111 90 70
-1.60288 0.388073 0.00337444 152 168 173
-1.61052 1.14154 0.00651595 159 139 116
-1.64111 0.696329 0.176585 179 164 150
-1.55287 0.845289 0.168524 215 208 198
-1.54118 0.376813 0.0195432 167 187 190
-1.59594 1.08689 0.128604 202 193 183
-1.68036 1.13571 0.00296183 145 132 117
-1.66909 0.385132 0.00381497 102 102 93
-1.60216 0.666605 -0.124582 117 99 74
-1.60579 1.03223 -0.123946 127 102 74
-1.53181 1.04329 0.153711 218 214 207
-1.67157 0.382337 -0.0980017 100 97 89
-1.64396 0.702218 -0.119556 131 102 79
-1.59839 1.04607 -0.132241 122 97 70
-1.62495 0.918975 -0.139835 145 118 103
-1.53525 0.993069 0.155368 221 212 202
-1.64609 0.378282 0.136858 141 160 166
-1.73116 0.614086 -0.0768355 122 89 55
-1.64004 0.841014 0.190061 198 182 168
-1.79131 0.706303 0.0489305 117 94 71
-1.53736 0.615458 -0.0740727 120 107 88
-1.79787 0.73664 0.0493073 128 106 80
-1.49147 1.02438 0.112042 225 225 218
-1.58474 0.952158 -0.124612 122 95 69
-1.79699 0.745376 0.0491671 117 97 74
-1.77498 0.633361 -0.00892529 121 89 61
-1.54333 0.619622 0.132332 202 189 174
-1.76072 1.08749 0.0492701 171 167 161
-1.7983 0.761304 0.0495951 120 99 76
-1.62155 0.972303 -0.134876 131 103 76
-1.67656 0.648957 0.165788 165 144 121
-1.49541 0.967417 -0.0736925 156 138 120
-1.70487 0.61055 -0.0970287 127 93 58
-1.73961 0.553525 -0.0272527 122 83 47
-1.63401 0.392083 -0.0192724 140 152 152
-1.75671 0.556447 0.0459241 104 77 50
-1.5431 0.748465 0.155814 214 203 189
-1.54526 0.508928 0.0057823 128 117 102
-1.75875 0.567259 0.048339 100 75 50
-1.47483 0.68545 -0.0123873 168 162 149
-1.4801 1.06144 -0.0156584 155 151 141
-1.68557 0.984567 -0.125556 132 102 73
-1.47615 0.837189 -0.0466202 200 189 171
-1.48666 0.968165 -0.0555606 130 113 94
-1.68532 0.385906 -0.0166496 78 72 59
-1.53658 0.741445 -0.0838362 123 101 79
-1.76301 0.576254 0.0502813 101 75 50
-1.74623 1.04825 0.167544 113 102 89
-1.77277 0.613448 0.0538827 109 84 60
-1.69099 1.04893 0.186955 165 154 140
-1.77515 0.632355 0.0559604 105 78 54
-1.58825 0.591407 0.148321 196 184 168
-1.69861 0.969071 -0.123656 128 94 70
-1.56092 0.533896 -0.0486082 110 92 72
-1.73857 0.834152 0.15836 103 84 65
-1.77751 0.639883 0.0550322 111 85 60
-1.48926 0.712078 0.0439009 204 198 186
-1.57797 0.703317 0.167286 210 201 187
-1.58078 1.08128 0.166336 215 211 204
-1.49738 1.0799 0.0452417 212 208 203
-1.49057 0.870119 0.11355 221 212 203
-1.48001 1.01022 0.0735085 223 218 209
-1.58538 0.66783 0.167972 205 192 173
-1.64663 0.736442 0.17836 183 170 159
-1.49696 0.980968 0.109811 218 219 211
-1.50464 0.83411 -0.0692751 103 86 66
-1.49875 0.999878 -0.0482133 154 136 117
-1.47947 0.951843 -0.0254831 208 201 187
-1.57886 0.575138 0.13179 183 174 162
-1.53737 0.619842 -0.0707929 122 102 79
-1.55743 0.506693 0.0508627 164 150 135
-1.46316 0.848771 0.0492107 171 162 151
-1.69873 1.09894 0.0885216 153 148 140
-1.7247 0.382396 0.0522451 175 182 180
-1.52019 0.551971 0.0217248 170 159 144
-1.47356 0.858807 0.0329055 176 169 158
-1.60606 1.16034 0.0208774 211 213 199
-1.69576 0.383598 0.0349082 158 163 160
-1.64358 1.14872 -0.00551888 109 86 59
-1.62723 0.393298 -0.0066267 140 152 152
-1.47368 0.916346 -0.00831578 207 199 185
-1.71366 0.635363 -0.0964209 122 87 54
-1.75358 0.557221 0.0570436 97 70 46
-1.50299 0.793398 0.109315 217 206 194
-1.50264 0.794497 -0.0533062 159 140 118
-1.49131 0.689352 0.0684327 222 216 204
-1.63198 1.09351 -0.057767 188 171 157
-1.75684 0.567921 0.0587096 100 75 50
-1.52699 0.375491 0.0870651 146 157 157
-1.51603 0.66905 -0.0948878 141 123 101
-1.53116 0.732603 0.144332 208 196 182
-1.78303 0.680174 0.0679348 104 82 61
-1.71515 0.988544 0.17493 135 119 100
-1.7285 0.794614 -0.100019 130 99 70
-1.79353 0.743729 0.0663026 115 95 72
-1.6384 0.684523 -0.123989 126 106 84
-1.5556 0.523012 -0.0179565 117 102 85
-1.53224 0.627857 0.125811 190 179 166
-1.5645 0.595894 0.132585 202 189 174
-1.64617 0.37983 0.10253 135 154 160
-1.56746 0.873577 0.174652 230 218 200
-1.46325 0.8599 0.0681582 200 194 179
-1.55485 0.516556 0.0846654 161 156 148
-1.64136 1.04189 -0.132851 120 93 70
-1.53011 0.618356 0.0988015 220 202 181
-1.7611 0.642033 0.112347 81 57 34
-1.71856 0.382562 0.0610422 120 139 147
-1.47474 0.788595 0.00988114 195 189 178
-1.53275 0.813048 0.150648 210 202 194
-1.67136 0.695689 0.169146 165 145 127
-1.6812 0.706719 -0.118261 123 106 85
-1.68946 1.07137 -0.117331 158 137 122
-1.70423 0.38298 0.0530924 114 131 137
-1.52475 0.694596 0.125071 216 204 192
-1.68305 1.10408 0.0902158 168 161 151
-1.62092 0.394737 0.00619973 137 149 150
-1.48411 1.06782 -0.0291721 200 188 172
-1.48649 1.02577 0.0924616 215 217 209
-1.80509 0.834577 0.0287819 123 98 74
-1.47297 0.959156 -0.00471305 185 179 167
-1.47265 0.886917 0.0727319 192 187 175
-1.71658 1.01565 0.173255 137 120 102
-1.48598 1.04527 -0.0288127 180 169 154
-1.80489 0.805512 0.0598902 107 86 63
-1.47384 0.886832 -0.00636532 207 199 185
-1.79405 0.76177 0.0224425 128 104 81
-1.6306 0.824043 -0.132752 144 116 91
-1.47428 0.898591 0.0156798 189 179 165
-1.754 0.568533 0.0690001 99 74 50
-1.51456 0.84641 0.154396 213 205 195
-1.4966 1.07754 -0.0572743 177 160 141
-1.74005 0.772244 0.149647 108 89 72
-1.56128 0.609333 -0.0843565 112 89 63
-1.77366 0.640044 0.0733057 99 74 52
-1.53039 0.748649 0.144529 206 196 184
-1.59465 1.07275 -0.10075 207 194 186
-1.77927 0.673143 0.0740686 100 75 53
-1.7882 0.678385 -0.0099134 123 96 69
-1.77945 0.679778 -0.00561249 123 96 69
-1.51302 0.639951 0.0634457 202 189 171
-1.53868 1.09015 0.082266 212 208 200
-1.52394 0.374892 0.0792787 146 157 157
-1.78185 0.678722 0.0730538 105 81 62
-1.55589 0.51664 -0.0246102 117 102 85
-1.56836 0.59424 0.144689 191 183 173
-1.71197 0.626441 0.143651 101 85 69
-1.7659 0.64918 0.0976266 95 71 49
-1.7917 0.743277 0.0744073 113 90 67
-1.50075 0.762053 -0.0666191 134 121 103
-1.50935 1.01506 -0.064573 159 141 120
-1.69758 0.383052 0.0622816 115 131 138
-1.487 0.794411 -0.053078 161 148 129
-1.74642 0.690303 -0.0673788 116 87 59
-1.77253 0.725499 -0.0360387 126 93 65
-1.76936 0.370431 -0.0361782 93 85 71
-1.48971 0.75289 0.0746721 196 188 173
-1.50678 0.738055 0.112514 206 195 183
-1.48203 0.924327 0.0834816 207 205 194
-1.53665 0.615447 0.107068 209 193 175
-1.61724 0.382636 -0.100119 106 107 101
-1.75898 0.657987 0.113551 81 57 34
-1.47723 0.92323 0.0326684 191 183 173
-1.537 0.615901 0.126888 189 177 164
-1.67453 0.776014 0.183835 178 164 152
-1.79858 0.737247 0.0166307 126 97 66
-1.74847 0.559134 0.0759089 97 71 48
-1.4863 1.03385 -0.0366538 171 161 146
-1.47467 0.956204 0.0914878 220 220 211
-1.7907 0.72069 -0.00683145 128 96 69
-1.63598 0.664089 -0.123339 130 112 88
-1.69642 0.726899 -0.11392 132 104 74
-1.64936 0.384894 0.0656493 166 179 182
-1.7507 0.569121 0.079296 93 68 44
-1.79985 0.824259 -0.00634763 129 98 67
-1.47976 0.98638 -0.00206161 204 196 185
-1.72196 0.58334 -0.0689149 124 88 53
-1.55969 0.59623 -0.0715522 121 101 77
-1.69793 0.981506 -0.123391 132 101 74
-1.7743 0.649186 0.0797063 97 73 51
-1.74077 1.0577 0.17257 113 102 89
-1.50174 0.986523 0.11635 224 222 215
-1.5096 0.93811 -0.0904101 140 117 98
-1.66782 0.819929 0.184455 178 165 154
-1.55218 1.08894 -0.0537973 215 214 208
-1.60482 0.688401 -0.123444 116 97 72
-1.61273 1.06807 -0.123546 136 109 81
-1.78757 0.736241 0.0842124 103 81 61
-1.6865 0.922677 -0.121703 139 108 78
-1.58133 0.707021 0.175573 216 205 188
-1.47741 1.06199 0.063056 223 219 208
-1.47982 1.06147 0.0438795 221 215 205
-1.47234 0.684764 0.0466855 224 219 210
-1.52379 0.773188 0.135975 217 206 193
-1.58425 0.706306 0.162196 225 203 181
-1.49057 0.760809 -0.0294592 199 190 175
-1.4816 1.04206 0.0209176 191 188 180
-1.67507 0.383438 -0.0683774 109 110 104
-1.47303 0.677968 0.0191257 211 207 197
-1.6751 0.383961 0.0619921 166 178 180
-1.74362 0.697852 0.144828 110 93 77
-1.63822 0.883148 0.197394 211 206 197
-1.68863 0.383588 0.0444206 170 179 179
-1.74487 0.825697 -0.0844868 138 107 78
-1.65626 0.384405 0.0551204 161 173 175
-1.53132 0.375806 0.0843871 146 157 157
-1.56676 0.382162 -0.0672108 136 150 152
-1.5767 1.09638 -0.0650399 214 211 206
-1.53289 0.770289 0.132753 217 206 193
-1.6363 0.383474 0.0436904 162 177 180
-1.71378 0.946544 0.178212 133 115 97
-1.70624 0.767744 0.168586 129 110 93
-1.53826 0.713931 0.147716 203 191 179
-1.60791 0.928568 -0.123456 134 106 78
-1.7413 0.549865 0.0835974 86 60 37
-1.7456 0.560008 0.084913 86 60 37
-1.69288 0.775892 0.17664 155 135 117
-1.66467 0.803912 0.182095 178 165 154
-1.64753 0.580614 0.150154 165 144 125
-1.76274 0.621416 0.0902906 88 62 39
-1.52756 0.657347 -0.0964832 111 92 71
-1.55184 0.881699 -0.110396 123 103 79
-1.77904 0.638751 0.0434337 108 85 61
-1.78197 0.646365 0.0503844 111 85 60
-1.6422 0.664434 -0.122062 130 110 85
-1.54754 0.5075 -0.00273852 123 111 95
-1.53383 1.08152 0.122902 191 185 179
-1.52581 0.660644 0.120998 166 153 136
-1.50038 1.07426 0.0594113 229 225 221
-1.49715 0.708598 0.0613227 231 215 196
-1.76974 0.638471 0.0918868 94 70 47
-1.58433 0.561939 -0.0830604 108 86 64
-1.51469 0.974663 -0.0818213 159 139 119
-1.67062 0.799948 -0.123664 140 113 88
-1.60476 0.683484 -0.13042 116 97 72
-1.60991 1.07597 -0.132159 227 221 210
-1.78678 0.741425 0.0913214 106 83 61
-1.78618 0.747922 0.0896256 106 83 61
-1.51665 0.804509 -0.0753868 101 83 62
-1.553 1.09374 0.077577 221 212 200
-1.58231 0.568508 -0.0840168 107 86 64
-1.78927 0.794534 0.0818638 101 78 57
-1.61043 0.631791 0.157882 204 184 160
-1.53765 0.695861 -0.0948806 97 80 62
-1.54434 1.07118 -0.0962073 151 130 107
-1.70408 1.10072 -0.0269759 101 76 56
-1.46854 0.852988 0.0860262 209 203 190
-1.47365 0.934855 0.0911793 207 205 194
-1.77176 1.06484 -0.08473 138 118 103
-1.79368 0.791916 0.0617734 109 84 61
-1.47432 0.984422 -0.00701655 210 200 186
-1.48204 0.708789 -0.0188165 149 144 131
-1.66517 0.843809 -0.130023 143 116 93
-1.64197 1.13255 0.0858348 194 183 169
-1.5073 0.865694 0.131035 211 200 191
-1.57056 0.684621 -0.106682 108 86 63
-1.58022 1.08093 -0.106303 212 204 192
-1.63083 0.386926 0.0574948 162 177 180
-1.64051 1.14075 0.056757 151 148 144
-1.66173 1.04971 -0.134769 117 91 68
-1.72914 0.580789 0.115719 75 51 27
-1.55032 0.386556 0.0431094 134 147 149
-1.66292 0.951483 -0.132529 142 116 91
-1.70513 0.38003 0.0787191 120 139 145
-1.53267 0.527644 0.0575571 163 154 141
-1.71894 1.08932 0.0785136 140 136 128
-1.47874 0.849066 0.0923279 209 203 190
-1.46972 0.848502 0.00593685 175 168 156
-1.75396 0.598086 0.096024 86 61 37
-1.63555 1.11436 -0.0289096 139 121 102
-1.62619 0.385301 -0.0294529 137 149 149
-1.80196 0.828114 0.0801934 120 94 74
-1.70726 0.988077 0.181503 154 138 120
-1.72766 0.800023 0.165966 120 100 81
-1.76448 0.640905 0.0975881 93 72 54
-1.78118 0.668616 -0.00313132 123 96 69
-1.78412 0.692627 -0.000510812 124 94 67
-1.64716 1.07947 0.184073 196 192 181
-1.50924 0.591491 0.00432118 190 175 155
-1.52513 0.656702 0.102997 162 144 123
-1.59538 0.604705 0.167386 189 179 162
-1.49604 0.656018 -0.00258579 153 138 121
-1.73599 0.791374 0.153779 106 87 69
-1.76755 0.657306 0.0977728 95 71 49
-1.71654 1.06921 0.16689 164 156 147
-1.78099 1.08697 0.0984038 171 167 161
-1.77568 0.719832 0.0968311 96 73 52
-1.47931 0.829903 0.00422952 190 183 171
-1.7924 0.998375 0.0989584 107 83 59
-1.77863 0.726574 0.0959189 96 73 52
-1.67811 0.383744 0.0904175 182 193 194
-1.61678 1.14421 0.0608101 211 202 188
-1.60427 0.39062 0.0607541 177 191 195
-1.53488 0.752741 0.145237 206 196 184
-1.53118 0.377708 0.1451 133 145 144
-1.61772 0.851 0.185805 218 198 177
-1.46754 0.899432 0.0328406 150 137 122
-1.51223 0.68507 -0.0655784 158 141 121
-1.52103 1.0754 -0.0665419 192 179 161
-1.54472 0.593522 -0.0716343 119 96 71
-1.52614 0.377531 -0.0909469 130 139 136
-1.54661 0.91732 0.172725 229 223 210
-1.53011 0.712469 -0.089974 115 93 70
-1.68041 0.989813 0.187084 163 147 131
-1.63462 0.384662 0.0325318 140 155 156
-1.6348 0.862417 -0.140371 143 117 93
-1.75763 0.625328 0.102908 82 56 32
-1.47386 0.914842 0.0971565 206 200 192
-1.53148 0.591619 -0.0529797 133 112 89
-1.48461 0.852662 -0.0553493 174 161 143
-1.77498 0.783473 -0.0589237 132 102 75
-1.47401 0.968857 -0.00401548 188 181 168
-1.79593 1.08051 0.0010718 148 134 122
-1.47845 0.847127 0.076031 180 170 154
-1.53136 0.615477 0.115002 197 185 171
-1.76454 0.665318 0.104883 92 70 49
-1.7726 0.71268 0.104928 93 69 47
-1.57252 1.04768 -0.105582 114 92 67
-1.6427 0.991598 0.193567 173 163 154
-1.58361 0.753525 0.179894 208 200 186
-1.47829 0.946744 0.0457592 179 168 154
-1.79136 0.974007 0.102041 93 68 44
-1.78063 0.747803 0.102338 108 85 68
-1.5524 0.575699 0.102482 193 179 164
-1.57616 0.377865 -0.0225184 141 159 163
-1.55422 0.538219 -0.0484224 113 94 74
-1.80512 0.959726 0.00483451 129 97 69
-1.63647 0.61441 0.158896 192 170 149
-1.58914 0.366327 0.15066 138 150 150
-1.6533 0.384178 0.0932986 183 196 198
-1.66558 1.11364 0.0893573 181 171 159
-1.56804 1.05141 -0.116595 114 92 67
-1.58932 0.383133 -0.0268411 147 162 166
-1.72919 1.07517 -0.0875366 148 128 114
-1.72304 0.695591 -0.0910015 131 101 70
-1.61011 0.532318 -0.0821154 100 83 64
-1.70956 1.04326 -0.119821 102 69 39
-1.70345 0.604596 -0.0906018 125 92 59
-1.51347 0.624851 0.0900964 196 185 170
-1.45459 0.904833 0.0450356 202 196 186
-1.47896 0.910884 0.0758343 186 177 166
-1.53639 0.578774 0.105207 191 178 162
-1.67381 0.787943 0.177394 168 153 140
-1.55535 0.747821 0.161528 208 199 186
-1.62017 0.486505 0.0995542 132 113 94
-1.65353 0.954479 0.193178 176 167 158
-1.62479 0.828507 -0.134924 144 116 91
-1.529 0.985014 -0.0896174 133 113 91
-1.73087 0.561687 0.108895 78 54 30
-1.48406 0.875803 -0.0474528 166 153 136
-1.78941 1.07356 0.0467247 183 178 172
-1.76346 1.08014 0.0761414 174 170 165
-1.48296 0.874972 -0.0615804 150 145 134
-1.74764 0.607988 0.11172 75 52 30
-1.47898 0.766508 0.0330012 201 194 180
-1.46785 0.789519 0.0466834 184 177 166
-1.75418 0.633582 0.112297 79 55 31
-1.7738 1.07973 0.111807 179 173 165
-1.76887 0.712955 0.112088 93 69 47
-1.47612 0.736823 0.050958 191 188 179
-1.64874 0.825355 -0.131773 145 119 94
-1.48484 0.812118 0.108552 214 206 195
-1.77368 0.742685 0.11176 91 68 45
-1.75104 1.07855 0.147633 155 148 138
-1.74588 0.701116 0.137949 87 69 52
-1.77221 0.735519 0.11173 91 68 45
-1.49063 0.724028 0.00920734 193 182 167
-1.67182 0.883795 -0.131851 147 121 95
-1.76618 0.585866 0.0516224 105 80 56
-1.70943 0.726404 -0.107722 134 103 72
-1.75788 0.378928 0.0403615 100 97 86
-1.48423 0.80087 0.0976 213 207 198
-1.75122 1.06161 -0.0995183 131 104 83
-1.79859 0.855071 -0.0178153 134 100 69
-1.68074 0.627265 0.157006 155 131 109
-1.51993 0.372634 0.0561612 163 175 174
-1.59051 1.06095 0.181531 210 203 194
-1.74661 0.695803 0.131163 87 67 48
-1.75011 1.08378 0.130708 182 177 170
-1.77672 0.756653 0.111887 91 68 45
-1.67938 0.686286 -0.109343 134 105 77
-1.61087 0.385607 0.153975 178 188 186
-1.51968 0.609565 0.0688279 224 202 177
-1.66551 0.383551 0.108932 183 193 193
-1.64695 0.383282 0.104448 180 193 194
-1.58473 0.872602 -0.117615 119 91 64
-1.65756 0.732411 -0.121024 134 106 83
-1.71691 0.775359 0.164077 129 109 90
-1.56634 0.731344 0.168469 212 201 186
-1.6627 0.989824 0.192113 163 152 143
-1.55375 0.667485 0.149865 195 185 172
-1.71114 0.384954 -0.0135232 104 102 93
-1.58879 0.391714 0.0841249 187 198 198
-1.48615 0.911171 0.110412 216 209 201
-1.71275 0.540925 0.114082 79 55 31
-1.54934 0.384797 0.0311802 130 144 146
-1.58003 1.09337 -0.0385884 178 175 170
-1.6395 1.14659 0.0327066 177 177 172
-1.6786 1.12506 0.0095814 122 106 87
-1.73017 0.572024 0.117591 78 54 30
-1.73331 0.57967 0.11855 81 58 35
-1.60171 0.661058 -0.113016 103 82 56
-1.60261 0.387348 -0.0359288 153 168 171
-1.59828 0.62235 -0.111749 111 88 63
-1.74238 0.608549 0.11904 82 58 34
-1.48026 0.765501 0.0381877 201 194 180
-1.7495 0.634138 0.119588 86 65 44
-1.49302 0.782391 -0.00344398 190 180 167
-1.47929 0.922676 -0.0355528 212 206 189
-1.79829 0.73959 -0.0048134 133 102 76
-1.50351 0.813345 0.108439 229 215 200
-1.71709 0.374931 0.131781 142 161 166
-1.77723 0.626466 0.0222892 112 82 56
-1.5349 0.584788 0.101161 211 186 162
-1.75699 0.634576 -0.0440284 118 86 56
-1.79872 0.744656 0.00898869 128 98 71
-1.80969 0.865326 0.0558181 128 101 75
-1.74519 0.569986 0.0935091 86 61 38
-1.78414 1.07286 -0.00439685 145 126 112
-1.7512 0.37884 -0.0405906 79 74 62
-1.68526 0.886727 -0.129318 147 115 84
-1.57909 0.617858 0.142711 193 182 168
-1.79199 0.76499 -0.0239615 131 101 72
-1.64315 0.834957 -0.132018 145 119 94
-1.79128 0.767167 0.0750893 110 89 69
-1.76523 0.721103 0.118822 92 70 50
-1.75247 0.855385 -0.0935763 136 106 77
-1.75019 0.684116 0.133108 87 67 48
-1.56153 1.07082 0.154288 201 195 187
-1.55508 0.697574 0.154429 205 195 183
-1.51854 0.661311 -0.07019 127 108 87
-1.60713 0.547991 -0.0891588 107 89 70
-1.52594 1.03925 -0.072327 131 113 92
-1.76725 0.808308 0.127446 96 75 54
-1.56595 1.07393 0.162281 207 200 190
-1.5593 0.708436 0.160886 213 198 182
-1.76679 0.731168 0.119291 91 68 48
-1.46688 0.932822 -0.0279089 221 218 204
-1.72272 1.0957 0.0664468 157 155 151
-1.67369 0.383014 0.12346 180 189 189
-1.47546 0.749228 0.038717 191 185 173
-1.53341 0.877483 -0.0993027 138 116 91
-1.58529 0.368407 0.136982 154 171 175
-1.64593 0.757586 -0.129511 135 111 89
-1.76474 0.799845 -0.0763087 133 107 81
-1.50849 0.899939 -0.076611 113 92 68
-1.4931 0.80417 0.0929625 206 193 175
-1.71778 0.562194 0.12546 78 57 35
-1.47318 0.985815 -0.0199809 210 197 180
-1.52152 0.956417 -0.0930325 154 133 113
-1.57097 0.675754 -0.120438 103 83 63
-1.63097 0.38651 0.0961501 182 197 199
-1.55588 0.712433 -0.100704 121 99 77
-1.55789 1.08174 -0.101892 205 196 180
-1.55307 0.553932 -0.0461304 112 92 71
-1.58982 1.09967 -0.0418084 180 176 169
-1.73161 0.591233 0.126033 84 62 40
-1.47895 1.01287 -0.024464 217 207 194
-1.48501 0.731878 -0.00146945 185 175 159
-1.7481 0.6513 0.126709 84 63 43
-1.51989 0.614627 0.079363 213 197 177
-1.55422 0.96278 -0.0971384 77 62 40
-1.56918 0.691789 0.154204 222 204 185
-1.64193 1.11925 -0.0239425 109 89 63
-1.56463 0.378184 -0.02474 141 159 163
-1.67169 0.594789 0.156047 146 121 96
-1.47986 0.700223 -0.00138794 163 157 144
-1.75037 0.661263 0.125556 85 65 45
-1.47949 0.83231 -0.053304 200 189 171
-1.77814 0.730124 -0.0346622 126 93 65
-1.57845 0.384577 -0.053184 140 154 156
-1.53719 0.391777 -0.0380057 114 127 128
-1.72108 1.0785 -0.0778462 143 126 110
-1.76753 0.743334 0.116819 91 68 45
-1.74906 0.841955 -0.090961 136 106 77
-1.75362 0.675258 0.126674 85 66 47
-1.74908 0.690148 0.134957 87 67 48
-1.46993 0.971698 -0.00415598 188 181 168
-1.47904 0.832621 -0.0577453 152 145 129
-1.64178 0.97953 -0.139539 135 109 84
-1.74133 1.08333 0.116967 176 167 156
-1.57573 0.389136 0.125382 155 165 163
-1.53992 0.388998 -0.0498865 121 133 133
-1.71685 0.672176 0.159974 128 112 98
-1.57149 0.391995 0.10724 167 177 176
-1.68997 0.648426 0.162991 152 130 108
-1.7102 0.562638 0.131437 88 66 45
-1.4809 0.731074 -0.0027537 169 160 146
-1.48682 0.719969 0.0329252 202 193 178
-1.74534 0.66143 0.13409 89 71 52
-1.59251 0.387683 -0.0721656 146 160 161
-1.76363 0.760248 0.132214 94 71 50
-1.77612 0.730679 0.112211 91 68 45
-1.74775 0.675142 0.131584 85 66 47
-1.75118 0.691827 0.133203 87 67 48
-1.46667 0.968787 0.00675625 194 188 177
-1.62948 1.05635 -0.12211 126 102 76
-1.55917 0.933078 0.177304 230 226 216
-1.55721 0.938859 -0.0964816 65 53 34
-1.57654 0.777359 0.183113 208 202 189
-1.7461 0.385214 0.0912365 171 177 173
-1.5847 1.12209 0.00952636 200 191 178
-1.76279 0.37851 0.0336854 105 100 89
-1.56381 1.06526 -0.112126 135 111 86
-1.57769 0.777193 0.178943 208 202 189
-1.73962 1.08714 -0.0346965 142 125 111
-1.48039 0.788945 0.0162198 194 187 175
-1.7462 0.381119 -0.089691 54 42 27
-1.75686 1.08344 0.133012 158 151 143
-1.75442 0.706265 0.132214 86 66 47
-1.48453 0.670565 0.0776375 242 240 230
-1.74568 0.616726 0.130693 80 58 39
-1.57598 0.596119 0.143654 191 183 173
-1.56701 0.371787 0.020074 157 176 180
-1.60926 0.942873 0.193879 207 195 179
-1.75929 0.731121 0.132408 86 66 47
-1.59714 1.10062 -0.0521296 180 176 169
-1.65109 1.1315 -0.00531737 89 60 30
-1.48273 0.820281 0.00631528 190 183 171
-1.4617 0.893724 0.0446353 190 184 172
-1.58377 0.370742 0.0097239 152 173 179
-1.76194 0.766451 0.13105 94 71 49
-1.60793 0.632887 0.172359 196 184 165
-1.55396 0.783219 -0.110416 124 103 80
-1.66096 0.383399 0.141814 190 199 198
-1.72804 0.744779 -0.103865 139 108 78
-1.64462 0.382254 0.149269 188 197 196
-1.69956 1.1079 -0.00784305 99 76 56
-1.71859 0.761094 0.163138 100 90 79
-1.66438 0.597719 -0.101189 121 94 66
-1.49954 0.759416 0.0923864 226 212 196
-1.57607 0.520067 -0.0489683 104 88 71
-1.6543 0.38344 0.151012 188 197 196
-1.65578 0.384805 0.119361 182 193 193
-1.5022 0.742372 -0.0214042 181 162 142
-1.56277 0.392144 0.118919 167 177 176
-1.72161 0.601374 0.14075 110 90 71
-1.78345 1.07705 -0.0313364 150 135 126
-1.48834 0.63332 -0.0125744 179 161 142
