ply
format ascii 1.0
comment Created by Open3D
element vertex 1285
property double x
property double y
property double z
property uchar red
property uchar green
property uchar blue
end_header
8.87519 0.263894 4.03114 146 135 119
8.8445 0.0776879 4.09756 177 176 168
9.07152 0.135366 3.99528 148 138 119
8.97706 0.173002 4.04177 148 144 132
8.78393 -0.33617 4.11043 206 202 190
8.85367 0.105512 4.08243 187 186 178
8.90303 0.204292 3.87038 150 141 124
8.85502 -0.116177 4.11278 202 203 198
8.84689 0.412988 4.11581 150 137 117
9.07242 0.00338534 4.07285 155 146 132
8.81887 -0.3687 3.90297 149 135 114
8.92179 -0.38345 3.92791 95 87 68
8.85315 -0.0231371 4.10412 162 158 146
8.84425 0.522478 4.10601 132 128 115
8.9111 0.0461422 4.10534 173 170 159
8.86301 0.0444048 4.09745 144 139 128
8.85875 -0.370292 4.12343 144 141 133
8.94044 0.145398 4.09764 179 176 167
8.73501 0.14638 4.00612 213 210 203
8.98744 0.144887 4.08939 213 212 205
8.90159 0.22976 3.92211 135 125 106
8.8553 0.0593682 4.1121 191 191 185
8.79462 0.272265 4.04537 163 157 149
8.90538 0.227575 3.92641 143 134 114
8.85319 0.0606876 4.10559 193 193 187
8.87061 0.112983 4.08249 188 187 178
8.97096 0.0685957 4.12105 205 206 199
8.90351 0.214155 4.03789 145 135 116
8.83807 -0.264495 3.92433 132 119 97
8.82882 0.279474 3.92296 112 97 69
8.81161 -0.057833 4.09715 171 168 159
8.74863 0.314479 4.06498 164 157 147
8.86358 0.14457 3.99904 91 77 59
8.87081 0.0440403 4.09728 144 139 128
8.75235 0.0604428 4.05602 202 203 197
8.86991 0.078402 4.09808 203 204 199
8.70149 -0.19924 4.06348 218 215 205
8.75339 0.069931 4.04042 180 180 173
8.67534 0.0112598 4.00595 212 212 206
8.86992 0.0883091 4.09703 200 198 190
8.87766 0.103744 4.08895 188 186 177
8.86853 0.271435 4.08942 142 129 110
8.91525 -0.400943 4.11907 122 116 101
8.78702 0.110418 4.07944 211 210 202
8.62526 0.181116 3.87838 194 192 183
8.74272 0.405336 3.92816 128 110 87
8.8861 0.113242 4.08278 196 194 186
8.564 0.0571129 3.80443 130 117 101
8.75957 0.0346985 3.92439 78 54 26
8.89458 0.137001 4.07242 184 180 170
8.90246 0.161619 3.85522 164 156 138
8.78481 0.0523758 3.93022 181 175 162
8.62587 0.136802 3.72877 159 142 121
8.78368 -0.162524 3.94514 155 143 124
8.90233 0.180689 4.05691 176 171 161
8.75175 0.34772 4.01156 150 141 128
8.83678 -0.165532 4.10496 197 197 190
8.88448 0.0449818 4.09778 162 158 147
8.85225 0.448365 3.93518 163 149 129
8.87732 0.0612949 4.10632 192 192 185
8.86917 0.315666 4.10695 151 137 115
8.91177 -0.41648 4.1377 112 105 91
8.886 0.0787542 4.09843 186 185 178
8.86529 -0.164651 4.08778 115 108 93
8.90237 0.120142 4.08055 185 181 170
9.01322 0.0696348 4.08812 132 121 101
8.93045 -0.388351 4.0632 118 113 101
8.74269 -0.0242874 4.08181 205 205 199
8.9213 0.161047 4.06343 155 149 137
8.79411 0.500013 4.1505 173 168 156
8.88705 0.455608 4.11017 153 142 124
8.89669 -0.0541023 4.11151 184 183 175
8.76188 0.445774 4.13815 240 237 233
8.92427 -0.0308821 4.09825 180 178 170
8.86274 -0.277555 4.03378 142 131 111
8.90372 0.0789366 4.09833 184 181 171
8.80492 -0.222883 3.96106 173 169 154
8.77066 0.526103 4.11372 198 196 190
8.85465 0.0435318 4.11863 182 181 173
8.94675 -0.0880134 4.14565 200 202 199
8.91215 0.110135 4.08843 171 167 156
8.76025 0.338009 4.0107 150 141 128
8.80626 -0.383965 4.15678 142 139 133
8.92975 0.239438 3.97342 160 149 126
8.91252 0.0269607 4.10668 182 178 169
8.85202 -0.383849 4.13192 127 125 120
8.94634 0.154931 4.06997 184 181 172
8.95441 0.202684 4.05832 130 122 109
8.93434 -0.0821975 4.11038 181 180 173
8.89411 0.244612 3.96905 140 128 105
8.93624 -0.0460553 4.10778 190 189 182
8.87244 0.302377 4.03182 165 157 139
8.97111 0.17719 4.06359 171 166 154
8.96991 0.188081 4.06466 183 178 165
8.93176 0.120114 4.04636 120 113 99
8.97653 0.175765 4.07235 175 170 157
9.05567 0.11167 4.06489 170 161 145
8.82576 0.425566 4.14082 204 195 180
8.97057 0.184113 4.0795 183 178 165
8.94707 -0.139719 4.13358 205 207 205
8.75285 0.471188 4.13731 224 221 212
8.92073 -0.403063 4.10534 104 97 83
8.94502 -0.0718739 4.13236 192 193 187
8.962 0.0854405 4.112 186 185 177
8.63965 0.180017 3.87956 196 193 185
8.7238 -0.389791 3.84897 141 141 136
8.64242 0.178466 3.91985 166 162 154
8.74254 -0.0714679 4.08757 209 211 207
8.66797 0.03268 3.9878 201 199 191
8.71781 0.180013 3.99554 237 237 230
8.96244 0.102614 4.10554 199 199 194
8.69407 0.187449 3.75911 125 107 81
9.10086 0.0739733 4.03692 155 147 133
8.81841 -0.349517 4.10771 191 185 174
8.82599 0.361862 4.13958 174 160 142
8.81074 0.0781097 3.93112 182 178 167
8.97106 0.129827 4.09738 212 213 209
8.76612 -0.18292 4.08939 207 208 203
8.79048 0.258915 4.05754 163 157 149
8.73784 0.1533 4.02602 223 223 217
8.98848 0.121037 4.10553 217 216 210
8.99478 0.136409 4.09644 209 208 201
8.96879 -0.124615 4.14685 152 147 135
8.96935 -0.0932578 4.10062 144 132 113
8.84223 -0.214793 4.02231 127 115 92
8.90542 0.467007 4.06569 155 143 122
8.76298 0.273725 4.10395 185 182 174
8.84499 -0.217342 3.97307 155 138 114
8.77065 -0.261322 4.10899 209 211 206
8.91889 -0.133119 4.0886 138 124 98
8.96985 -0.0897832 4.14512 127 120 108
8.9866 0.0688959 4.12091 215 215 209
8.99568 0.07966 4.11407 216 216 209
8.73509 -0.220306 4.06782 202 202 194
8.7302 0.342854 3.93887 152 136 113
8.92077 0.0278546 4.12138 219 223 221
8.87055 -0.239598 4.08888 139 132 120
9.00248 0.111146 4.10591 186 182 171
9.00585 0.124047 4.10485 192 191 184
9.00967 0.0585727 4.12146 158 148 131
8.68366 -0.160808 4.02133 172 168 156
8.67042 0.421389 4.05123 174 162 145
8.81974 -0.333894 3.94281 117 109 92
8.63402 0.0447228 3.95357 178 175 164
8.66773 0.424419 4.03082 161 148 128
8.80903 0.214457 4.03915 200 197 188
8.67803 -0.0818833 4.03002 182 181 172
8.83724 -0.0325766 3.98717 125 111 90
8.6788 -0.0495079 4.03008 207 208 200
8.66817 -0.250421 4.013 211 212 208
8.69828 0.0960465 3.99891 182 184 181
8.62633 0.15445 3.74344 138 121 97
8.69314 -0.183001 4.01431 193 192 184
9.04431 0.0800324 4.07099 155 146 130
8.71272 -0.250399 4.0038 170 168 162
8.67489 0.204989 3.94473 176 171 161
8.71144 0.339764 3.98735 193 183 166
8.72172 -0.20742 3.9867 197 194 186
8.89596 0.313245 4.03328 146 136 120
8.69163 -0.0394064 4.03843 206 208 203
8.82017 -0.346636 3.91328 138 122 98
8.97007 -0.0656118 4.11247 156 145 127
8.57679 0.137996 3.86108 179 178 169
8.72109 0.244709 3.9883 238 239 231
9.04762 0.0965594 4.07294 159 150 134
8.70903 0.0713673 4.01573 198 199 193
8.72859 0.249211 3.97139 233 230 221
8.86337 0.214098 4.02318 157 145 124
8.86849 -0.316738 4.02299 165 155 136
8.73275 -0.291322 4.05524 203 202 197
8.71056 0.137795 4.00517 223 224 220
8.66782 -0.0717594 3.97882 169 165 151
8.7168 0.130194 4.0136 210 209 203
8.78621 0.263264 4.10771 200 195 188
8.71383 0.333256 4.03594 219 213 199
8.71661 -0.201514 4.03658 167 160 145
8.70903 0.356401 4.04547 218 212 200
8.71632 -0.194398 4.04917 179 173 158
8.73501 0.135612 4.02109 217 217 210
8.75932 0.354931 3.92781 130 113 89
8.98646 0.119827 4.09735 211 211 204
8.73694 0.153334 4.01855 223 223 217
8.92076 0.235717 3.9864 144 133 108
8.79321 -0.131486 3.9619 170 163 146
8.69247 0.0379818 4.01345 196 197 193
8.74308 0.155083 4.02305 217 214 206
8.72015 -0.00754046 4.06919 217 218 211
9.02156 0.0942849 4.08834 140 130 109
8.71752 -0.0904908 4.07003 174 172 164
8.70728 0.473586 4.07263 188 181 169
8.7192 -0.0733521 4.07023 189 189 181
8.62581 -0.134085 3.95979 183 178 164
8.7498 0.145218 4.02899 215 211 203
8.74193 -0.232578 4.0645 199 197 189
8.86066 0.270277 3.90439 166 154 132
8.72827 -0.0224706 4.07163 192 192 185
8.77858 -0.390868 3.89621 67 54 34
8.94649 0.121112 4.09525 182 179 170
8.75198 0.12098 4.03861 204 204 198
8.56271 0.0768063 3.82654 155 149 137
8.64276 -0.156342 4.02144 201 198 189
8.88238 0.279443 4.02083 160 153 139
8.75953 0.151569 4.03771 213 209 201
8.91237 0.238381 3.96302 149 139 118
8.69281 -0.250905 4.09201 229 232 228
8.6696 0.0522043 3.96083 157 147 132
8.87939 -0.260582 4.04776 176 168 149
8.91139 0.178472 4.06423 172 167 155
8.74478 0.0706808 4.06244 202 201 195
8.94464 0.160404 4.06028 179 176 167
8.76492 0.142226 4.03966 218 215 207
8.9359 -0.452509 4.07337 129 122 108
8.77497 0.0426682 4.04953 193 194 189
8.68294 -0.359984 4.1134 184 181 171
8.75194 0.0601378 4.07108 191 189 181
8.78528 0.169905 4.03527 217 211 199
8.69929 -0.270797 3.97412 191 188 176
8.86734 0.147223 4.04635 154 147 137
8.75137 -0.0307026 4.08813 188 186 177
8.74471 0.512408 4.0892 195 192 182
8.72482 0.103815 4.02215 209 210 206
8.74184 0.50936 4.08875 196 193 182
8.75103 -0.02246 4.0862 195 194 185
8.89666 0.186261 4.06967 186 183 174
8.78829 0.0445084 4.05028 157 152 141
8.83512 0.0269833 4.08787 193 193 186
8.88511 0.315672 4.0825 144 132 112
8.76122 0.078208 4.07146 214 214 208
8.67922 0.404605 4.01629 164 154 139
8.6834 -0.121311 4.01306 177 171 157
8.6849 -0.124585 3.96957 129 119 101
8.79613 0.170359 4.03891 191 186 179
8.81246 -0.023528 3.96791 183 180 167
8.94516 -0.0485663 4.13145 198 198 193
8.83597 0.163154 4.0518 196 190 180
8.88806 0.440409 3.96841 152 138 119
8.94567 -0.0510646 4.10967 200 198 191
8.76752 -0.0242193 4.08792 201 200 190
8.83812 0.252291 4.04658 93 80 61
8.68306 -0.260981 4.07222 228 231 228
8.79531 0.033822 4.0709 216 216 210
8.73808 0.128512 4.0451 225 227 223
8.73537 0.128549 3.9533 134 126 116
8.79484 0.036698 4.08292 169 167 158
8.68677 -0.256832 4.03284 208 208 203
8.85952 -0.370157 3.88996 89 78 60
8.80189 -0.0893458 4.04686 102 92 73
8.77775 0.1046 4.06445 213 214 207
8.93129 -0.00981911 4.10106 177 176 168
8.62492 0.161639 3.89497 182 180 171
8.78721 0.127122 4.05992 201 199 191
8.82151 0.371585 4.13458 168 153 132
8.82914 -0.141847 4.10374 211 214 210
8.8019 0.161025 4.04636 193 188 183
8.83668 -0.0991596 3.98266 157 148 128
8.80863 0.176937 4.03973 189 184 176
8.62552 0.186443 3.81952 185 181 171
8.77841 -0.142033 4.09325 205 206 200
8.63726 0.0936408 3.89784 169 163 153
8.77861 -0.116951 4.0951 203 204 198
8.80364 0.025914 4.06595 201 202 196
8.6782 -0.341997 3.99059 200 196 186
8.66987 0.143596 3.98656 230 232 228
8.81472 -0.180225 4.06121 131 118 96
8.78512 0.0954072 4.0731 211 211 204
8.81443 -0.177853 4.04391 121 109 89
8.78669 0.10431 4.07112 208 207 199
8.85274 -0.0227285 4.09787 176 173 163
8.8471 0.524304 4.09974 132 128 115
8.97068 0.162762 4.06394 166 161 148
8.9693 0.153256 4.00012 103 89 67
8.76082 -0.300814 4.08011 222 221 216
8.81292 0.166168 4.04992 189 184 176
8.84412 0.339197 4.11593 168 152 129
8.92053 -0.387649 4.06324 114 110 97
8.91274 0.144576 4.06341 174 168 155
8.80394 -0.252644 4.09527 183 182 176
8.6687 0.103172 3.9368 168 163 155
8.75237 -0.374461 4.15469 111 104 92
8.78995 -0.132903 4.09567 202 203 196
8.87981 0.126642 4.03016 107 93 75
8.87244 0.248816 4.02905 142 131 112
8.78503 -0.0992147 4.09575 174 172 165
8.8877 -0.367593 3.9694 112 98 75
8.78459 -0.0916889 4.09773 176 175 168
8.92525 0.480625 4.02821 140 125 104
8.70362 0.212906 3.94621 222 218 208
8.71245 -0.362561 3.94871 143 135 120
8.93787 0.0274989 4.12127 191 190 184
8.80928 -0.318017 3.93825 139 129 112
8.80232 0.321482 3.93584 144 131 110
8.78762 -0.0393295 4.09669 203 201 194
8.92093 0.234894 3.96491 152 141 119
8.79541 0.0444279 4.08197 154 150 139
8.8447 -0.0137047 4.09585 186 183 174
8.8948 -0.370314 4.16586 99 93 83
8.8049 0.129039 4.07222 194 191 181
8.89235 0.237189 3.89734 156 148 131
8.87017 0.247014 4.03496 142 131 112
8.69909 0.156434 4.01735 223 224 220
8.78389 -0.0981903 4.09076 184 183 177
8.81214 -0.182942 4.09638 182 179 169
8.67387 0.467343 4.03902 168 154 133
8.92971 0.171973 4.06351 171 168 158
8.68206 -0.0845959 4.03495 198 198 191
8.85222 0.0525848 3.96313 156 145 127
8.8012 -0.114585 4.09597 199 199 193
8.75903 0.315791 4.02056 203 198 184
8.74497 0.288127 4.06302 179 175 166
8.96827 0.14502 4.07038 198 196 189
8.88598 0.0441287 4.06167 132 121 106
8.97046 0.142492 3.89191 157 149 131
8.82887 0.371772 3.9283 132 117 95
8.70247 0.389813 3.97858 163 151 133
8.63331 -0.073035 4.00314 194 191 181
8.68931 -0.397389 4.14034 154 150 140
8.71129 -0.140982 4.05421 195 196 191
8.69902 0.399661 4.05562 170 160 147
8.82885 0.135428 4.06313 184 180 170
8.64988 0.168477 3.73441 126 109 84
8.80937 0.271575 4.11771 210 205 197
8.817 -0.262585 4.11216 204 203 196
8.82102 -0.254788 4.10911 195 192 184
8.81704 0.356658 4.14717 178 167 150
8.79966 0.145384 4.01358 199 191 179
8.80463 0.146238 4.0382 207 201 193
8.82435 -0.188078 4.10247 150 147 137
8.78408 -0.249352 3.94293 111 103 85
8.77522 0.280935 3.94489 157 144 121
8.75629 0.234633 3.81978 107 87 61
8.81689 0.153333 4.03709 210 204 195
8.82045 -0.167905 4.02862 107 95 73
8.65919 -0.38901 4.11944 142 136 124
8.60895 0.111641 3.91179 207 203 193
8.81746 -0.16494 4.10419 184 182 172
8.75231 -0.38241 4.15498 126 121 112
8.66781 0.0749657 3.95269 157 147 133
8.81293 -0.113535 4.09511 194 194 188
8.78759 0.161605 4.00421 210 202 189
8.55892 0.0682833 3.84718 141 131 116
8.78665 0.16148 4.02895 211 205 194
8.81259 -0.115633 4.10378 199 199 191
8.66639 0.169637 3.9798 218 217 209
8.78852 0.151379 4.04026 209 204 194
8.81188 -0.0909673 4.10342 196 196 190
8.82874 0.0027753 4.08737 208 208 203
9.08172 0.119743 4.02235 149 136 119
8.769 0.169482 3.79504 185 184 176
8.99497 0.169754 3.91159 166 159 142
8.84597 0.145078 4.06523 172 169 159
8.68043 -0.25044 4.04668 222 226 223
8.85325 0.154081 4.06473 178 175 166
8.83345 0.0363223 3.95592 163 152 135
8.8369 0.0415307 4.08194 82 73 54
8.88465 0.196762 4.03781 164 155 138
8.59986 0.0182618 3.91154 130 125 116
8.83573 -0.213772 4.11009 177 172 160
8.97993 0.135796 4.09539 209 208 202
8.97807 0.136048 4.0143 118 105 83
8.82912 -0.130371 4.10798 204 204 197
8.82894 -0.0806565 4.06335 127 115 95
8.80881 -0.352893 4.10797 191 185 174
8.82617 -0.0820856 4.10649 194 194 187
8.95248 0.0379749 4.10623 145 140 128
8.96369 -0.398508 3.98865 106 99 84
8.81914 -0.0735677 4.10582 167 164 155
8.75125 0.263963 3.88744 159 144 118
8.75167 0.262682 3.92924 187 176 158
8.80999 -0.0506501 4.11142 162 158 148
8.56533 0.0700595 3.82841 155 149 137
8.97582 -0.0396545 4.10899 150 140 126
8.93696 0.186683 4.0553 143 132 113
8.81165 0.0528871 4.10394 167 165 157
8.64222 -0.122271 3.98668 189 188 182
8.83447 0.11832 4.08122 182 181 174
8.83746 -0.26105 4.09194 168 164 153
8.75254 0.304448 4.0969 201 195 186
8.76039 -0.243123 4.09338 216 215 209
8.8628 0.14519 4.07114 174 171 160
8.69162 0.498581 4.06495 228 225 214
8.86846 0.161722 4.06309 178 176 170
8.88399 0.195125 4.05521 172 166 154
8.8465 -0.147011 4.11232 189 190 183
8.57162 0.0026775 3.81468 150 138 122
8.66431 -0.374486 4.03687 165 162 154
8.82998 -0.053655 4.11362 152 147 136
8.83278 -0.0438684 4.11136 152 147 136
8.90397 -0.383571 3.90619 93 85 69
8.8356 -0.0328288 4.1039 174 171 161
8.8855 0.363998 4.07221 159 149 130
8.86109 0.0107492 4.09513 187 185 175
8.89369 0.209233 4.01936 133 120 96
8.87077 0.3127 3.9804 155 140 120
8.8576 -0.144393 4.10106 189 190 183
8.89366 0.214258 4.01547 133 120 96
8.93721 -0.0808656 4.12337 190 191 186
8.87846 0.163849 4.07113 180 179 173
8.95272 0.0854267 4.10545 176 174 165
8.88501 0.186804 4.06374 192 190 181
8.77416 0.0523801 4.0493 193 194 189
8.84383 0.362929 4.12142 177 162 140
8.85431 -0.16896 4.12142 185 185 177
8.85045 0.176781 4.06384 189 186 178
8.6788 0.478607 4.02206 229 228 221
8.68444 -0.0657038 4.02181 196 195 189
8.97746 0.216439 3.97683 127 118 98
8.73623 0.178189 3.96387 219 214 205
8.86214 -0.0899437 4.11288 189 189 183
8.85359 -0.0491508 4.06701 136 124 106
8.75108 0.484111 4.11798 200 196 185
8.55991 0.0776317 3.85205 168 162 149
8.80495 0.396638 4.14752 196 182 164
8.73193 0.548749 4.02122 210 207 197
8.74717 0.163651 4.02388 232 230 221
8.91206 0.185894 4.06378 187 185 177
8.87714 -0.152953 4.12127 174 172 163
8.87172 0.0128977 4.11535 188 186 177
8.83451 -0.301791 3.9473 135 121 100
8.81188 -0.0201083 4.10464 221 221 213
8.60795 -0.0323854 3.84637 161 148 130
8.60094 0.000616683 3.846 159 149 136
8.86071 0.0691537 4.11268 199 199 194
9.00319 0.0266963 4.08947 137 126 108
9.03091 0.121971 4.08128 151 142 122
8.58636 0.050605 3.84476 142 130 116
8.89383 0.388398 3.97905 126 110 90
8.81709 0.225819 4.04429 152 144 129
8.65944 -0.0978243 3.99744 169 168 161
8.58379 0.180043 3.86997 235 236 229
8.95229 -0.0740306 4.06273 106 92 69
8.89937 -0.134464 4.12216 212 212 205
8.65312 0.198406 3.83142 177 176 169
8.895 0.0606163 4.10592 182 181 173
8.78504 0.497731 4.13779 199 202 199
8.86371 -0.383161 3.91782 67 56 37
8.80274 -0.0733066 4.09103 166 165 158
8.9291 0.119936 4.08747 173 168 156
8.76846 0.161676 4.01285 217 212 202
8.94544 0.146702 4.08094 179 176 166
8.86096 -0.374539 4.15547 119 115 106
8.93499 0.153387 4.07924 179 176 167
8.83552 0.00314234 3.96994 162 151 133
8.94519 0.173416 4.07642 179 176 167
8.94098 0.00514 4.07682 146 136 119
8.8066 -0.309011 4.09464 203 202 196
8.85321 0.16741 4.01298 206 197 185
8.94508 0.085633 4.0958 179 177 170
8.94532 0.0939415 4.09649 179 177 170
8.76798 0.160897 4.00339 218 213 204
8.94832 0.147444 4.0904 179 176 166
8.81267 0.463652 4.14866 191 181 167
8.93472 -0.125017 4.11579 153 150 139
8.67671 0.0685463 4.00641 222 225 221
8.95639 0.175026 4.08478 166 159 148
8.92862 0.053891 4.10505 173 170 160
8.69326 0.119484 3.99682 208 209 204
8.76984 -0.173545 4.08011 205 209 206
8.94476 -0.0308019 4.11995 171 168 159
8.95368 0.0934542 4.10493 180 178 170
9.09107 0.0890657 4.03065 159 149 133
8.60727 0.170457 3.78739 172 166 153
8.64776 0.231474 3.85164 200 199 190
8.8111 0.447702 3.92019 149 133 111
8.95516 0.1352 4.10158 182 179 170
8.7034 0.109626 3.9561 155 150 141
8.92041 0.171278 3.86186 149 139 119
8.77963 -0.13022 4.09538 201 201 194
8.83664 0.0450986 4.03946 96 80 59
8.82999 0.364312 4.15349 184 170 154
8.86188 0.472524 4.13659 165 155 137
8.83477 -0.175152 3.97875 149 136 115
8.96872 0.124926 4.11029 228 232 230
8.85432 0.508903 3.95572 147 134 113
8.6089 -0.0916046 3.96386 185 184 176
8.70421 -0.364962 3.94376 143 135 120
8.6968 0.177533 3.94326 153 146 130
8.99307 -0.056514 4.1322 150 146 136
8.86337 0.431327 3.9435 169 155 135
8.66723 -0.132841 3.95607 136 125 105
8.66508 -0.133277 3.99599 168 163 150
8.71901 0.1705 3.97103 192 186 175
9.02188 0.0364488 4.0793 133 123 105
8.85422 0.464713 4.13355 173 164 146
8.87688 0.288188 4.01238 168 162 148
8.8869 -0.241318 4.01243 149 135 111
8.99467 0.118279 4.1121 211 211 204
8.87789 -0.105602 4.07974 143 132 112
9.02447 0.139737 4.07575 159 153 136
8.75854 -0.329432 3.9323 145 131 112
8.69385 0.397461 3.9794 162 150 132
8.68322 -0.381618 4.12965 134 131 122
8.69252 0.396933 3.98806 160 148 131
8.6241 -0.0285169 4.00093 207 205 196
8.68211 -0.366614 3.94488 169 162 148
8.6755 0.175906 3.94748 100 90 69
8.67793 0.184351 3.94759 111 99 77
8.58299 0.0951341 3.89433 184 180 170
8.95187 -0.090064 4.1191 215 215 209
8.74448 0.305308 4.00543 199 192 178
8.66071 -0.148522 3.97923 193 194 186
8.78841 0.183205 4.00115 213 208 199
8.80337 0.466587 4.16378 161 150 130
8.66734 0.136451 3.9891 213 214 207
8.74376 -0.0161321 4.07194 205 205 199
8.73053 0.330825 3.9464 160 142 117
8.69676 -0.268642 3.97784 191 188 176
8.6688 0.138536 3.96986 210 212 208
8.69624 0.438921 4.01869 147 136 123
8.86905 0.183281 4.0669 210 210 203
8.68919 -0.250181 4.08428 229 232 228
8.88011 -0.258766 4.05429 176 168 148
8.66739 0.0538491 3.9889 212 212 205
8.69381 0.412807 3.97037 137 123 105
8.67271 0.0800153 3.98113 210 210 205
8.67484 0.101572 3.9791 212 213 208
8.67578 0.117721 3.979 201 203 198
8.62957 -0.0562182 3.91489 160 150 130
8.73624 0.414254 4.09125 161 148 132
8.74144 -0.242237 4.08786 199 198 190
8.67692 0.127956 3.97259 201 202 197
8.69263 -0.358397 3.9625 169 162 149
8.71124 -0.0720322 4.01099 157 152 141
8.8168 0.505058 3.93927 145 134 114
8.70227 0.463183 4.01064 185 177 165
8.68534 0.187316 3.96055 164 157 142
8.63618 0.0775444 3.89767 169 162 150
9.03112 0.114281 4.07919 147 138 119
8.65786 -0.0822949 4.01275 175 174 168
8.70013 0.412974 3.97858 137 123 105
8.96778 -0.107295 4.10691 196 189 173
8.63227 -0.0409623 3.87808 162 147 124
8.80995 0.267137 4.10056 124 117 104
8.59246 0.0849389 3.77925 139 127 110
8.80716 0.259994 4.04751 143 136 125
8.6841 0.127484 3.98153 199 199 193
8.67952 -0.156312 4.02047 174 169 155
8.73259 0.235411 4.01011 236 238 233
8.96083 0.105216 4.08854 187 187 180
8.71721 0.178384 3.97612 211 207 196
8.85795 0.277478 4.04861 134 120 100
9.03089 0.0608066 4.07432 136 126 108
8.76794 0.229858 4.01515 218 217 211
8.72686 0.319708 3.98797 218 211 195
8.91944 0.0100155 4.07977 144 135 118
8.63454 0.128027 3.74374 188 184 173
8.73422 -0.225012 3.98748 186 183 174
8.99554 -0.0907544 4.12137 107 101 90
9.11795 0.0426668 4.02185 132 125 110
8.91254 0.170856 4.06412 175 170 158
8.91959 -0.374709 4.06617 115 107 93
8.94654 0.224262 3.9399 158 150 133
8.80256 0.139408 4.0633 166 160 147
8.91974 -0.373394 4.1164 61 53 39
8.95832 0.195242 4.04483 164 158 146
8.9924 0.0177666 4.13309 206 206 198
8.6911 0.0184425 4.01483 195 195 190
9.03253 0.155212 4.05535 161 155 140
8.72274 0.177728 3.98164 214 209 200
8.7223 0.186785 3.98166 244 243 235
8.72444 -0.00492083 4.055 185 183 173
8.7099 0.0968892 4.00709 191 191 185
9.02854 0.153934 4.06544 173 168 153
8.72786 0.181567 3.98968 244 243 235
8.79394 -0.0642161 3.96369 186 182 169
8.87788 -0.367352 4.09635 185 177 161
8.63451 0.185778 3.88633 196 193 185
8.73028 0.188742 3.98791 244 243 235
8.85379 -0.256955 4.08202 129 123 111
8.66902 -0.135133 3.98827 168 163 150
8.71935 0.170845 3.9625 193 187 176
8.71984 0.0850486 4.01431 164 162 153
8.6677 -0.0571791 3.99001 180 175 163
8.71806 0.144249 4.01147 214 213 206
8.769 -0.186871 3.9415 152 142 124
8.79305 0.249479 3.85323 149 133 107
8.75983 0.362911 3.93376 119 103 80
8.98986 0.144395 4.09646 213 212 205
8.73399 0.145692 4.01243 213 210 203
8.7126 0.44431 3.98286 156 147 131
8.68278 -0.382395 3.92896 119 115 106
8.6765 0.165157 3.92998 165 162 153
8.74811 0.183933 4.00026 230 231 225
8.64124 0.0698199 3.93839 162 157 147
8.73994 -0.215419 4.04161 197 198 192
8.73206 0.388971 4.03661 159 156 145
8.71206 0.455856 3.98792 156 147 131
8.83527 0.312675 3.9464 174 162 144
8.81708 -0.0321549 4.02723 109 94 74
8.90916 0.406225 4.00975 127 111 91
8.842 -0.225626 4.08038 153 142 122
8.96678 -0.0984958 4.07337 132 120 100
8.73305 0.0606004 4.03244 179 178 171
8.80932 0.246685 4.07194 85 73 52
8.7247 0.077698 4.03163 186 186 179
8.64234 -0.0557708 3.93587 155 146 126
8.76172 0.179826 4.00472 231 231 223
8.80016 0.0227976 4.06699 216 216 210
8.95312 -0.0660561 4.13158 193 194 188
8.75885 0.195544 3.98099 199 196 188
8.64248 0.0183132 3.99586 201 198 190
8.64248 0.0250083 3.98263 195 194 187
8.7625 0.194887 4.00309 227 227 220
8.78474 0.397665 3.91394 112 95 71
8.74319 0.138295 4.03116 202 200 193
8.76835 0.162821 4.03154 218 213 204
8.88511 0.380964 4.09169 156 145 128
8.84537 0.096125 4.09518 179 176 167
8.88547 0.379218 3.9646 147 127 100
8.77383 -0.352518 4.1324 188 183 168
8.84457 0.103837 4.08053 188 187 179
8.95018 -0.38911 4.03541 115 110 98
8.769 0.187077 4.01268 221 219 212
8.79473 0.50702 4.15657 182 178 168
8.75191 -0.258431 4.09285 213 213 208
8.74616 0.27398 4.08747 141 136 125
8.82764 -0.208108 3.97646 152 139 119
8.89589 -0.0646845 4.08161 151 142 125
8.82695 -0.205735 4.06354 162 150 127
8.75201 0.085758 4.05553 208 209 204
8.9538 0.0106154 4.12324 161 157 146
8.95345 -0.0880697 4.06334 112 97 71
8.89423 -0.0310319 4.08785 142 133 118
8.88422 0.496106 4.08641 150 142 128
8.80193 0.0605321 4.0959 170 168 158
8.58162 0.104353 3.8803 163 159 150
8.75363 -0.222259 4.06373 211 211 205
8.74428 0.306908 4.06289 164 157 147
8.58486 0.0949563 3.90147 193 189 179
8.95525 -0.0911748 4.14625 200 202 199
8.81062 0.498606 3.94363 139 124 102
8.75916 0.260604 3.96137 183 174 162
8.78822 -0.182013 3.96062 156 147 129
8.73598 0.0418403 4.05403 197 196 189
8.91216 0.186258 4.03832 169 162 147
8.74732 0.0520503 4.04538 197 197 192
8.87708 -0.233089 3.98745 150 136 111
8.91151 0.180107 4.03987 186 181 170
8.87699 -0.234442 4.04151 137 125 103
8.74551 0.0612971 4.04587 189 189 183
8.91171 0.246248 3.94551 160 150 128
9.01027 0.193362 3.98739 133 125 106
8.90364 0.404214 4.05532 132 119 100
8.74348 0.127951 4.03852 208 207 201
8.62366 -0.107506 3.99687 211 214 208
8.75254 0.138341 4.03754 192 189 181
8.55769 0.0693829 3.81819 102 91 72
8.78429 0.16206 4.02008 221 216 207
8.80351 0.46533 4.15707 178 168 151
8.81287 -0.193377 4.06168 165 158 142
8.78612 0.186536 4.01415 213 208 199
8.72537 0.367366 4.03054 181 178 169
8.92119 -0.0304145 4.12168 224 227 225
8.795 -0.199378 4.08088 215 217 213
8.72774 0.366808 4.08118 191 184 174
8.87496 0.0289955 4.05869 120 107 89
8.92015 -0.0312807 4.10658 192 191 184
8.73712 -0.164201 4.07701 198 201 197
8.88517 0.304456 4.05445 149 139 120
8.82891 0.561169 4.03981 161 152 136
8.83636 0.0284908 4.04132 106 89 67
8.75921 0.0529056 4.04519 196 196 191
9.03939 0.0827765 3.95192 127 119 106
8.65903 -0.0670077 4.00456 184 184 176
8.89437 -0.0803221 4.11356 190 189 182
8.88515 0.481223 4.11271 123 111 91
8.75089 0.103209 4.05548 214 216 211
8.70024 0.0597979 3.98068 144 133 118
8.7506 0.128342 4.04629 220 222 219
8.76047 0.14523 4.03914 222 220 214
8.75251 -0.179939 4.08092 208 208 205
8.741 0.362566 4.08171 188 180 170
8.56747 0.0157265 3.88552 157 152 140
8.71519 0.154976 3.76301 179 175 165
8.64036 0.228989 3.91163 232 234 229
8.74581 -0.0888645 4.07794 203 204 197
8.84194 0.0650164 4.02943 100 84 65
8.87824 0.187431 4.01954 164 154 139
8.88719 -0.343414 4.02237 162 151 131
9.05635 0.144632 3.96192 181 173 156
8.84473 0.0187928 4.05398 118 104 83
8.76683 0.0528302 4.05599 193 194 189
8.80378 0.516182 3.95467 148 134 112
8.76126 0.112896 4.0467 212 213 208
8.81144 0.0266725 3.95385 181 177 166
8.93599 0.204092 4.00515 132 121 100
8.86152 0.505859 4.12972 116 104 84
8.75911 0.112353 4.05626 215 217 212
8.92023 0.473724 4.07016 175 163 141
8.92955 -0.0894592 4.07338 115 101 77
8.81784 0.171276 4.02123 205 197 186
8.97765 -0.402681 3.95171 111 104 89
8.81173 0.195856 4.02231 197 187 174
8.77064 -0.200168 4.08801 207 208 203
8.99592 0.154886 4.07392 191 190 181
8.91235 0.0769944 4.05363 134 126 112
8.70032 -0.347433 3.98504 148 140 126
8.7577 -0.12374 4.08625 195 194 184
8.79371 -0.02595 4.09921 206 204 196
8.91481 0.0149323 4.12956 226 230 228
8.76783 0.103071 4.06414 212 213 206
8.64542 -0.0665257 3.91046 165 155 135
8.83554 0.177888 4.03144 214 207 196
8.96538 0.200354 4.03912 161 156 145
8.70173 0.471275 4.0202 183 177 165
8.82867 0.195818 4.02826 201 192 181
8.95368 -0.411307 4.02168 120 114 100
8.77956 -0.381574 3.85063 129 125 116
8.82832 0.212742 4.02955 183 175 163
8.88216 0.513783 4.03434 152 139 119
8.9373 0.187089 3.87139 160 153 137
8.83309 -0.308752 3.9484 137 123 102
8.94127 -0.369277 4.02048 100 94 82
8.7532 0.255629 4.02849 222 221 215
8.8804 0.516845 4.01703 142 129 108
8.5593 0.0573088 3.81821 102 91 72
8.59971 0.0427079 3.9124 188 185 178
8.94275 -0.371836 3.9748 91 81 64
8.82911 0.221687 4.03193 158 149 134
8.83357 -0.314617 3.94725 133 121 100
8.93782 0.177681 4.06209 182 180 171
8.75091 0.263272 4.02856 203 200 193
8.75296 0.265225 4.0506 167 162 153
8.82772 0.228652 4.02985 152 142 127
8.72417 0.321565 4.00316 218 213 198
8.79552 0.111117 3.9052 177 173 163
8.91915 0.00993942 4.09946 195 194 188
8.73421 -0.223581 4.00544 124 113 96
8.87073 -0.251607 4.06719 169 157 135
8.9206 -0.0907072 4.12138 198 199 194
8.7855 0.305669 4.0976 202 192 180
8.798 -0.25432 4.09319 199 199 192
8.7441 0.501679 4.10035 128 123 114
8.75153 -0.0473242 4.09562 178 178 170
8.752 0.489158 4.13192 200 196 185
8.6407 0.00758174 3.91014 160 150 133
8.75933 -0.0263554 3.97335 114 100 78
8.58433 0.0880688 3.9018 194 190 180
8.75963 -0.021703 4.08904 203 203 195
8.79339 0.455879 4.14601 232 228 220
8.7913 -0.0318153 4.1063 206 204 196
8.86121 -0.107086 4.07324 152 142 123
8.73714 0.196252 3.97746 217 213 204
8.85047 0.182408 4.03582 195 187 174
8.81136 0.548089 3.97773 147 137 119
8.84516 -0.225015 3.99605 169 159 137
8.85226 0.219971 4.03028 175 165 148
8.90968 0.162943 3.92917 116 105 89
8.75058 0.475084 4.12881 200 195 183
8.91018 0.129072 4.08006 181 176 164
8.92288 -0.399921 4.08089 112 106 93
8.94516 -0.0740416 4.12415 193 194 188
8.91347 0.128165 4.07236 176 171 160
8.6932 0.069354 4.0198 199 198 189
8.91528 0.0455296 4.11328 177 174 164
8.75187 0.245829 3.98629 198 193 183
8.69293 0.0676293 4.0319 199 198 189
8.84281 0.23731 4.0362 120 107 89
8.89278 0.229834 3.97962 150 137 113
8.81098 -0.242947 4.09925 183 182 176
8.80192 0.249317 4.09789 120 112 99
8.71277 -0.350258 4.06934 186 181 168
8.78505 -0.115565 4.08773 204 205 200
8.92074 -0.418591 4.10564 97 90 77
8.78056 0.0525247 4.06 157 152 141
8.80115 -0.20859 4.09716 207 206 199
8.746 0.447629 3.92239 135 117 92
8.80249 0.178874 3.81068 176 170 155
9.03678 0.162437 4.06413 180 176 163
8.77763 -0.0827328 4.09617 193 193 188
8.94112 -0.0430023 4.07969 118 107 86
8.76743 -0.0474451 4.09715 191 190 183
8.80156 -0.30778 3.93526 143 132 114
8.96931 0.0796479 4.05441 110 97 77
8.84706 0.506722 4.1224 155 149 137
8.77732 0.0533237 4.08841 175 171 161
8.80259 0.44232 4.15453 224 219 210
8.78544 0.0768954 4.07987 210 208 200
8.79272 0.102573 4.0784 217 216 208
8.7339 -0.180487 4.05596 199 197 190
8.72752 0.347585 4.05673 183 179 168
8.87032 0.194907 4.03699 185 176 158
8.87843 0.178533 4.03761 181 175 165
8.73654 0.0944846 4.04765 218 220 216
8.68286 -0.280685 4.02632 195 191 180
8.92147 0.238235 4.0127 139 128 105
8.92916 0.211278 4.02268 143 132 112
8.73639 -0.0071722 4.07094 201 200 192
8.96162 0.0133405 4.10622 130 125 113
8.82045 -0.217795 4.10615 181 177 166
8.91946 0.121143 4.02829 115 104 90
8.69682 -0.0508911 4.00152 136 126 108
8.68592 0.481301 4.00399 205 197 183
8.74291 0.00151404 4.06249 209 209 202
8.74246 0.00298506 4.00957 113 99 77
8.77648 0.214254 4.01516 220 218 212
8.81327 -0.177817 4.10605 182 179 169
8.77659 0.255698 4.09728 138 131 119
8.78965 -0.292642 4.09395 205 203 197
8.89477 0.26883 3.9386 149 137 113
8.80689 -0.149442 4.10569 194 193 185
8.96965 -0.0483347 4.14715 140 134 122
8.80218 -0.125478 4.10407 197 197 191
8.675 0.46593 4.02971 168 154 133
8.93039 0.171179 4.05529 144 136 120
8.93486 -0.372035 4.05692 101 93 79
8.68455 -0.081877 4.03029 191 191 183
8.8035 -0.113545 4.10399 199 199 191
8.87057 -0.324742 4.02936 169 159 140
8.86186 0.22049 4.02994 152 140 120
8.78264 0.472589 4.16696 176 167 150
8.63779 0.193347 3.82263 177 176 169
8.63019 0.199847 3.9317 233 236 233
8.72085 -0.38312 3.84594 132 132 128
8.79445 -0.0899825 4.1031 183 183 176
8.63356 -0.402314 3.97942 147 147 141
8.77651 0.364316 4.12122 221 214 203
8.93644 0.0266809 4.12902 207 208 204
8.90872 -0.415552 4.15953 89 79 62
8.7878 -0.0389777 4.10232 206 204 196
8.86911 0.227254 4.01395 158 146 125
8.86933 0.330799 4.0987 157 144 123
8.87704 0.0458255 4.09824 144 139 128
8.93752 0.0351951 4.12289 202 203 198
8.90791 -0.428449 4.14984 111 104 87
8.78775 -0.029108 4.10106 206 204 196
8.79251 -0.0170627 4.09927 203 203 195
8.78644 0.528899 4.09515 179 178 171
8.76826 0.115254 4.04784 212 213 208
8.69362 -0.369861 4.08601 144 139 129
8.70044 0.500883 4.08443 222 218 205
8.71365 -0.108313 4.07766 174 176 172
8.8295 0.0352622 4.08135 82 73 54
8.92145 0.238022 3.9792 146 135 110
8.94542 -0.390843 3.95823 84 75 57
8.73458 0.103111 4.03851 196 196 192
8.79444 0.0458205 4.09516 161 158 147
8.80137 0.0881913 4.09559 204 202 193
8.8269 -0.0834931 4.05893 114 104 86
8.81959 0.448033 4.14826 221 217 208
8.80149 0.0855612 4.0873 204 202 193
8.61193 -0.053576 3.95176 153 151 143
8.86224 0.143747 4.06266 170 166 156
8.8352 0.530804 4.09785 153 150 140
8.84349 -0.0735462 4.0987 192 193 188
8.74083 0.482868 4.11895 228 226 217
8.84093 -0.0591439 3.9813 141 127 103
8.8876 0.180182 4.04748 172 167 155
8.74369 0.247316 3.98642 198 193 183
8.9781 0.153469 3.88802 159 149 129
8.81105 -0.385033 4.18114 139 137 130
9.05532 0.118875 4.04847 160 154 137
8.79335 0.112081 4.07269 208 207 199
8.97825 0.135509 4.08928 207 207 201
8.61692 0.081259 3.93591 219 223 218
8.82358 -0.129447 4.11043 204 204 197
8.84714 0.159313 4.04785 190 186 178
8.81879 -0.00856724 4.09802 221 221 213
8.79949 0.0446406 4.06863 128 121 108
8.74422 0.288047 4.05615 172 166 156
8.7447 0.28925 4.03065 190 184 173
8.80183 0.0454633 4.09854 159 156 147
8.83553 -0.131911 4.05672 130 117 94
8.81267 0.0759792 4.09512 190 188 178
8.98569 -0.051287 4.07536 144 133 114
8.87194 -0.358752 4.082 189 182 168
8.8414 -0.140101 4.0987 178 177 168
8.81843 0.085913 4.08957 198 196 187
8.78574 0.245582 4.05483 178 175 166
8.68946 0.454113 3.99287 182 171 154
8.69852 -0.0740792 3.99792 136 127 110
8.74409 0.52161 4.06195 186 182 172
8.7518 -0.00592186 4.06286 207 208 202
8.70051 -0.266476 3.96282 181 176 162
8.86946 0.144262 4.0707 177 173 162
8.80362 0.103931 4.05662 205 200 189
8.84234 -0.0734967 4.1131 198 199 194
8.88638 0.119424 4.08123 194 191 182
8.76777 -0.0153829 4.08595 211 212 205
8.89797 -0.402709 4.15595 111 105 90
8.84472 -0.0488826 4.10591 187 186 178
8.64893 0.17832 3.89638 163 159 151
8.83877 -0.0138154 4.10595 215 215 207
8.83086 0.528721 4.10661 150 146 135
8.89415 0.0744642 4.05368 125 115 99
9.0623 0.00965542 4.07985 131 120 102
9.06203 0.0101664 4.06964 149 139 125
8.89554 0.0791052 4.09799 185 184 177
8.97599 0.0524177 4.13661 202 203 196
8.84065 0.00121315 4.10497 207 206 199
8.73158 0.111552 4.03194 214 216 213
8.6885 -0.263388 3.9705 191 188 176
8.92018 0.187764 4.02146 143 133 114
8.7856 -0.359146 4.14576 193 188 173
8.8525 0.0946131 4.09507 179 176 167
8.68464 -0.238757 4.00451 205 202 191
8.98066 0.219431 3.98002 185 179 159
8.85298 0.152996 4.08695 164 161 151
8.85963 -0.0739108 4.11929 197 197 192
8.85361 0.494078 4.12454 183 173 158
8.99565 0.0951493 4.10737 194 194 186
8.60886 -0.089901 3.93571 161 153 134
8.86417 -0.0233909 4.1118 200 200 194
8.85477 0.50594 4.11568 183 173 158
8.61051 -0.0912041 3.90909 150 133 109
8.60162 0.0616373 3.91304 190 189 182
8.59784 0.107977 3.74833 152 136 113
8.86175 0.0599719 4.10108 194 194 187
8.86586 0.000262883 4.1104 188 186 177
8.87644 0.274878 4.07185 129 114 89
8.8883 0.482592 4.1213 104 90 68
8.89605 -0.0830112 4.12181 179 175 164
8.71616 0.0116174 4.0388 207 207 200
8.7193 0.0104837 4.0618 214 216 211
8.7354 0.272657 3.96305 222 217 203
9.02119 0.111951 4.08834 142 132 111
8.83333 -0.237746 4.04333 131 123 103
8.93797 0.23637 3.98874 142 132 108
8.7514 0.321486 3.98992 174 167 155
8.87031 -0.00749556 4.09919 175 172 162
8.83531 -0.237491 4.06879 135 125 105
8.9383 0.237398 4.01712 146 136 114
8.88857 0.0252639 4.11485 185 183 175
8.97799 0.178226 3.90344 175 167 149
8.802 -0.0727747 4.09737 165 163 155
8.93043 0.120662 4.09603 175 170 159
8.92797 0.164466 3.8643 156 146 128
8.76741 -0.183283 4.06416 220 220 213
8.85243 0.0698921 4.09841 187 186 179
8.78367 -0.349761 3.89709 159 145 123
8.80195 -0.090472 3.96433 166 161 145
8.86038 -0.375287 4.1289 125 122 115
8.93793 0.150125 4.09013 179 176 167
8.6604 -0.12289 3.9955 170 168 159
8.65451 0.170643 3.87921 139 134 127
8.96065 -0.00421366 4.11734 169 165 154
8.77737 0.202207 4.02867 223 222 215
8.8024 -0.181851 3.96268 157 149 133
8.93748 0.0542725 4.11459 166 163 153
8.75092 0.240877 3.91005 170 163 153
8.81978 -0.380565 3.87264 65 53 32
8.97159 0.111092 4.10463 208 210 205
8.99642 -0.0663334 4.13086 131 125 114
8.86011 0.179012 4.06553 199 197 190
8.9862 -0.0206998 4.12833 218 218 213
8.99469 -0.00587015 4.12505 218 218 213
9.01442 0.0567815 4.11515 161 153 137
8.61978 0.00891993 3.89658 159 147 128
8.78628 0.2298 4.03808 209 207 199
8.7121 0.221611 3.79816 153 134 106
8.61645 0.0114335 3.92005 151 149 143
8.77769 0.111164 4.07129 214 214 207
8.99463 0.211495 4.01239 136 130 116
8.72786 0.432817 4.09853 149 135 117
8.66616 0.238286 3.88659 213 214 207
8.63861 -0.0417224 3.90634 160 150 130
8.71895 0.087305 4.02952 206 206 199
8.62451 0.00359054 3.92175 153 150 142
8.87028 0.347201 3.96218 149 136 117
8.63312 0.0877419 3.92092 174 171 163
8.77444 -0.111653 4.1037 216 220 215
8.63429 0.0976364 3.92321 183 182 176
8.63356 0.106589 3.92215 190 190 184
8.65135 -0.407818 3.9194 159 161 155
8.64083 0.137976 3.92004 190 188 179
8.88763 -0.147682 4.09462 158 148 128
8.87624 0.397125 4.09734 172 160 141
8.99446 0.218728 3.99996 145 138 120
8.77795 0.137177 4.02067 206 200 190
8.73669 -0.103332 4.07913 209 210 204
8.66797 0.228841 3.90221 203 198 184
8.62033 0.0167158 3.95168 182 179 168
8.9041 0.00996612 4.07256 139 129 112
8.99432 0.212206 3.99695 145 138 121
8.7781 0.113094 4.05794 191 188 178
8.72432 0.431115 3.93259 142 124 101
8.62149 0.0287564 3.95306 198 195 184
8.72664 0.431433 4.10754 155 141 123
8.67092 0.241357 3.89622 213 214 207
8.82514 0.178241 4.05328 218 211 198
8.63386 -0.0975321 3.92032 160 149 129
8.68638 0.152689 3.98005 214 215 212
8.63043 -0.0831951 3.92621 167 157 139
8.7278 -0.350296 4.1301 200 195 182
8.87857 -0.0903056 4.10583 186 186 179
8.72643 -0.379968 3.8449 146 146 141
8.62496 -0.0158459 3.93711 152 143 125
8.62563 -0.00723158 3.93537 157 150 135
8.62712 0.00335284 3.93468 155 150 140
8.72639 -0.335479 4.05688 179 175 164
8.62606 0.0140608 3.93733 152 145 132
8.63436 0.0546599 3.92991 169 167 158
8.9192 0.228719 3.91478 151 142 123
8.6554 0.164426 3.90669 181 179 172
9.09557 0.0949241 3.97067 157 148 132
8.66737 -0.375733 3.93057 141 139 132
8.65888 0.170554 3.92843 165 162 153
8.65159 0.17703 3.93875 185 184 177
8.64068 0.182118 3.94396 200 198 187
8.65276 -0.360049 4.02244 221 221 214
8.81261 0.416969 4.15482 183 168 149
8.66097 0.051134 4.00422 230 232 227
8.64361 0.187339 3.94507 180 176 166
8.64394 0.202007 3.9462 195 194 184
8.7439 -0.17469 3.9566 155 146 128
8.73665 0.345472 3.95266 154 141 122
8.69075 0.265836 3.90827 207 201 186
8.71539 0.110986 3.99922 167 164 153
9.0194 0.0794421 4.09803 149 139 118
8.5909 0.0520453 3.85361 142 130 116
8.6347 -0.00684395 3.93379 157 150 135
8.68494 0.230495 3.83549 158 148 129
8.81135 0.227248 4.03687 167 160 148
8.96489 -0.0921287 4.10796 144 132 113
8.63142 -0.00781538 3.95274 145 136 120
8.68588 0.232806 3.92331 209 205 193
8.69082 0.244606 3.92075 227 221 210
8.7181 -0.241533 3.95521 175 171 162
8.68661 -0.362641 4.09238 144 139 129
8.69295 0.25385 3.92148 233 228 218
8.65839 0.211968 3.96334 209 209 202
8.70749 -0.250497 3.93198 169 161 147
8.70023 0.238299 3.92924 214 209 198
8.6848 0.0281444 4.00568 201 202 198
8.72766 -0.240957 4.08241 194 192 184
8.57561 0.0610278 3.87896 174 168 157
8.72523 -0.241395 3.96296 158 156 147
8.70282 0.255137 3.92861 233 231 221
8.75358 0.179292 3.78198 188 185 174
8.86877 0.127435 4.0897 189 187 178
8.75868 -0.383872 3.87914 126 122 112
8.62487 -0.0989149 3.98148 190 190 183
9.03015 0.00289011 4.08226 149 140 125
8.81315 -0.0769751 4.09049 166 165 158
8.67375 -0.353761 3.95983 212 206 193
8.66893 0.157247 3.95994 203 204 198
8.7117 0.257644 3.93616 234 231 221
8.76012 -0.34505 3.91347 148 133 114
8.69184 0.482984 4.0036 208 201 188
8.70083 -0.0646951 4.0034 136 127 110
8.62585 -0.0474969 3.99746 190 190 182
8.82765 0.102916 4.08836 198 196 186
8.66041 0.202615 3.97851 206 202 192
8.72751 -0.251188 3.94796 186 188 182
8.71715 0.259737 3.94197 234 230 220
8.69294 0.406281 3.97313 137 123 105
8.67551 0.0883394 3.98017 213 214 210
8.89445 0.242816 3.96352 140 128 105
8.93688 -0.0485065 4.13788 177 177 166
8.88133 0.054376 4.04946 135 124 109
8.92808 0.0943093 4.09553 172 168 158
8.69409 -0.209894 4.03013 186 180 171
9.06279 0.137905 3.96107 187 179 162
8.67497 -0.165071 3.99683 156 154 145
8.64881 -0.0687461 4.00438 184 184 176
8.68359 0.0947646 3.98692 195 196 191
8.72689 0.17798 3.96172 216 211 202
8.89445 0.155019 3.88271 106 98 85
8.67622 -0.167181 4.00482 159 155 144
8.62227 -0.0946221 3.98946 186 187 181
8.67252 -0.0289198 3.959 168 161 147
8.86905 0.127812 4.07886 191 189 180
8.87107 0.094826 4.03532 107 93 75
8.75254 0.0739684 4.07355 217 218 211
8.67667 0.0205416 4.00543 221 223 219
8.6804 0.0505948 3.95289 152 144 128
8.77461 0.397329 3.92058 110 93 68
8.7359 0.0300224 4.07315 223 223 216
8.85073 -0.373137 4.12079 144 141 133
8.7349 0.0272248 4.04804 209 209 202
8.68406 0.0534668 3.99791 183 181 173
8.99486 -0.0217087 4.10889 170 168 160
8.69131 0.0770298 3.99519 195 196 191
8.83378 -0.0664451 3.99522 134 120 99
8.82133 0.415681 4.15476 162 145 124
8.82697 -0.106517 3.97826 176 167 149
8.95838 -0.418878 4.01767 120 114 100
8.96373 -0.410846 3.99662 120 114 100
8.67715 -0.149846 4.02091 174 169 155
8.93698 -0.0713764 4.13055 189 191 186
8.8042 0.220591 4.03803 195 191 182
8.89422 0.24622 3.99813 135 123 100
8.80295 0.265035 4.11368 208 203 195
8.78666 -0.124423 3.9632 170 163 146
8.91942 0.0477189 4.09567 148 142 129
8.78556 -0.0977476 4.08293 183 183 175
8.7025 0.151861 3.99868 227 227 223
8.75199 0.187893 3.9716 217 213 204
8.6833 -0.382676 3.89574 155 155 151
8.67543 0.161023 3.89775 155 152 146
8.752 0.203478 3.97879 198 194 185
8.84673 0.24566 4.02879 147 136 117
8.75242 0.220533 3.98009 203 198 190
8.91568 0.051031 4.07032 129 117 100
8.75187 0.237636 3.97983 203 199 191
8.74274 0.271421 3.89639 159 144 118
8.82725 -0.20692 3.9697 152 139 119
8.80164 -0.0390455 3.96328 186 183 171
8.74586 0.273769 3.97857 197 190 177
8.98049 0.209918 3.9294 148 142 125
8.67309 0.457888 4.02984 186 173 153
8.68384 -0.0727059 4.02977 199 199 193
8.79358 -0.383002 3.88846 59 45 24
8.78311 0.161568 3.88314 149 142 129
8.81474 -0.117847 3.9789 163 156 140
8.90367 0.371618 4.03139 93 76 56
8.56066 0.0683164 3.85954 155 150 140
8.73814 0.545351 3.99243 193 190 181
8.74193 0.161653 3.99728 209 204 195
8.65199 0.245038 3.84494 200 199 190
9.03643 0.142256 4.05029 143 136 118
8.63856 -0.057818 3.94225 133 123 105
8.75929 0.178162 3.98817 222 218 209
8.90556 -0.147646 4.08949 147 132 106
8.64159 0.0282685 3.98861 193 191 183
8.7606 0.203088 3.98696 203 200 192
8.76155 0.210107 3.80683 127 109 84
8.58501 0.0519552 3.80341 144 132 118
8.90381 -0.141939 4.08665 147 132 106
8.95477 -0.0802493 4.11345 206 206 198
8.64076 0.0339861 4.00263 222 220 211
8.75957 0.212479 3.98783 211 208 201
8.72415 0.318804 4.02145 218 215 206
8.86757 -0.256014 3.94128 131 118 97
8.86121 0.284595 3.93687 148 134 111
8.73433 -0.220808 4.02305 140 137 128
8.8924 0.290134 4.02746 153 145 131
8.68211 0.482331 4.03594 229 228 221
8.69238 -0.0476482 4.03773 206 208 202
8.74358 0.152625 4.00391 211 206 197
8.76816 0.170881 3.99732 226 220 211
8.61098 -0.108535 3.96169 189 184 171
8.94628 0.110933 4.09754 181 178 170
8.7675 0.195397 3.99808 216 212 203
8.97967 -0.072276 4.10664 156 145 127
8.76525 0.214148 3.99692 209 206 198
8.69983 0.0608829 4.01236 195 194 186
8.87704 -0.165067 4.08508 115 108 93
8.75226 0.126958 4.05465 220 222 219
8.69282 0.413102 4.04722 157 144 127
8.70184 -0.130291 4.04806 192 193 187
8.7281 0.136921 4.02185 213 212 205
8.85247 0.119229 3.93695 160 154 144
8.77737 0.177749 4.00549 222 217 209
8.80231 -0.194123 3.9563 162 154 136
8.94028 0.0450081 4.1071 152 148 138
8.98482 -0.379363 3.93036 107 99 83
8.68254 -0.0999713 4.03531 199 199 192
8.77514 0.195321 4.00716 221 219 212
8.67232 0.435467 4.05501 166 153 134
8.92068 0.213292 3.98905 135 123 101
8.68289 -0.0898072 4.05147 193 192 184
8.76579 0.27686 4.00625 207 205 199
8.59388 0.0959704 3.80248 186 185 180
8.80812 0.202917 4.04017 193 186 175
8.65256 -0.048485 3.96486 158 153 138
9.047 0.0425619 4.08544 155 147 131
8.72564 0.0531303 4.04592 197 196 189
8.80337 0.47431 4.15752 165 155 135
8.67959 -0.359554 4.00353 142 135 123
8.7867 0.17778 4.01377 211 203 192
8.91105 0.178164 4.05609 174 170 158
8.82889 -0.212224 4.00398 172 159 134
8.74203 0.278496 3.92601 186 175 156
8.79365 0.481289 4.14941 181 174 161
8.8254 -0.214978 4.06613 162 150 127
8.89245 -0.0409172 4.08687 141 132 117
8.88521 0.507264 4.09029 161 156 145
8.95353 0.00198902 4.1227 162 158 147
8.80282 0.0531169 4.09807 162 159 150
8.74833 -0.231855 4.06267 206 205 196
8.74233 0.31383 4.0637 178 173 162
8.90184 -0.0888047 4.11377 198 197 189
8.58461 0.102255 3.90233 216 219 215
8.95474 -0.0980111 4.1477 199 201 198
8.75866 0.287952 4.08045 161 156 146
8.76901 -0.242835 4.07993 207 211 209
8.79483 0.195898 4.02239 211 207 197
8.84492 0.408716 4.14867 153 141 121
8.79297 0.215058 4.02898 213 211 204
8.61926 0.0105347 3.92958 151 149 143
8.71615 -0.318733 4.08811 237 238 233
8.78453 0.227114 4.02903 213 211 203
8.78298 0.237601 4.0251 209 207 199
8.61621 0.00140648 3.93147 139 136 130
8.61735 -5.31647e-05 3.88731 154 142 124
8.72032 -0.376581 4.11633 154 150 141
8.78459 0.23681 4.03096 206 204 196
8.69887 -0.284895 4.05527 215 213 205
8.75008 0.0520684 3.97005 97 78 51
8.67845 0.0290577 3.9716 154 145 129
8.6789 0.0263827 4.02134 221 226 223
8.86797 0.0690005 4.11308 202 202 197
8.75447 0.0490079 4.05834 197 197 192
8.86942 0.0756945 4.04433 113 100 82
8.89517 -0.0573991 4.08072 146 139 124
8.75233 0.0939229 4.05534 208 209 204
8.85371 0.263135 3.90294 161 150 128
8.91732 0.489141 4.05376 157 143 122
8.99094 -0.0855888 4.06006 125 113 90
8.8503 0.261851 4.04024 94 81 62
8.92778 -0.041568 4.10424 185 184 177
8.86385 -0.250085 3.95378 135 122 100
8.78563 -0.215711 3.95311 156 145 126
8.77654 0.313693 3.95656 146 132 109
8.84154 -0.142171 3.99446 99 85 63
8.81943 0.186512 4.02921 198 189 177
8.97877 -0.400487 3.96144 111 104 89
8.81148 0.195237 4.02908 197 187 174
8.75205 -0.158301 4.0726 189 189 181
8.83544 0.0768397 4.10522 157 153 143
8.70848 -0.195779 4.02244 171 163 145
8.65218 -0.376639 4.08895 118 114 105
8.96106 0.0359843 4.12396 197 197 191
8.739 0.314154 4.0927 212 210 201
8.64934 -0.36745 4.04484 180 180 173
8.74289 -0.140598 4.08556 188 186 176
8.64182 0.200699 3.81627 184 178 165
8.72397 -0.385286 3.83999 96 94 86
8.64191 0.202057 3.89495 185 182 173
8.74205 -0.0836623 4.08069 216 218 213
8.6409 0.18182 3.80045 210 206 195
8.97046 -0.0826935 4.13015 139 132 120
8.91842 -0.123895 4.08001 145 132 107
8.91133 0.423241 4.08064 142 130 111
8.83595 0.204277 4.03015 183 175 163
8.74233 -0.380072 3.83515 87 78 64
8.79091 0.0192451 4.06625 212 212 206
8.97795 -0.116638 4.13108 125 119 106
8.84089 -0.287115 4.06729 154 146 130
8.9113 0.432062 3.98831 144 127 107
8.91476 0.427811 4.03514 134 119 100
8.97928 -0.116047 4.11452 132 125 112
8.79402 0.00874831 3.95239 183 178 165
8.73473 0.00200125 4.07833 226 229 225
8.87068 -0.0232667 4.10425 193 192 184
8.86363 0.526708 4.10586 143 135 119
8.84719 0.19409 4.03777 195 187 174
8.76092 0.0946442 4.06435 209 209 203
8.69413 -0.142587 3.98903 141 131 112
8.87863 0.40923 4.10788 135 124 104
8.88478 -0.1232 4.10615 172 171 164
8.72749 0.414488 3.93706 134 118 96
8.92755 -0.107555 4.1356 187 188 183
8.66641 0.221798 3.90418 191 188 178
8.77445 0.127408 4.06263 219 221 215
8.77551 -0.335269 4.10369 212 209 199
8.84415 0.188337 4.04028 212 205 192
8.952 -0.0676189 4.07111 106 91 67
8.58266 0.140003 3.84645 177 175 167
8.90535 -0.126637 4.12041 213 214 208
8.75912 0.189509 3.78033 139 116 86
8.81652 0.220393 4.04439 180 175 163
8.95906 -0.0902491 4.11306 144 132 113
8.68773 0.229277 3.90156 171 163 149
8.63691 -0.00776776 4.00618 205 203 194
8.63378 0.0178473 3.93856 155 150 140
8.67995 -0.0702121 4.04809 160 157 149
8.81114 0.237884 4.04563 159 152 141
8.92565 -0.116897 4.10569 165 163 155
8.72616 0.454809 3.96277 156 147 129
8.77675 -0.174955 4.09445 201 202 196
8.70308 0.19435 3.76016 142 122 96
8.85859 0.178062 3.90317 134 128 120
8.79435 -0.0153127 4.07974 202 202 194
8.78461 0.532264 4.08148 181 180 173
8.91291 0.00257814 4.11429 218 220 217
8.76536 -0.152854 4.09467 205 206 200
8.75856 -0.11922 4.09369 202 202 196
8.7481 -0.0566725 3.99669 99 83 59
8.8328 0.515016 3.94718 141 128 107
8.8853 0.180745 4.01457 168 161 150
9.0576 0.0856848 3.92354 143 134 119
8.75082 -0.0629542 4.09131 187 188 183
8.86911 0.480965 4.131 143 132 113
8.74949 -0.0479452 4.08791 178 178 170
8.73574 0.128053 4.02401 222 224 219
8.68287 -0.255818 4.08289 229 232 228
8.7357 0.127947 4.03799 224 226 222
8.79432 0.0362223 4.06237 175 170 159
8.92106 0.203821 4.03656 148 139 123
8.88473 0.202702 4.0519 168 160 145
8.91482 0.21398 3.99195 143 130 105
8.87781 -0.335421 4.05433 161 153 136
8.66602 0.145016 3.96316 210 211 207
8.91174 0.212928 4.03732 145 134 115
