ply
format ascii 1.0
comment Created by Open3D
element vertex 1255
property double x
property double y
property double z
property uchar red
property uchar green
property uchar blue
end_header
1.76999 -0.179342 -2.2999 158 143 122
1.63375 -0.308954 -2.33551 177 162 141
2.20431 -0.311416 -2.11728 214 207 196
1.72911 0.195748 -2.23736 215 204 182
1.64717 -0.458024 -2.33387 158 143 122
2.17157 0.14222 -2.07612 224 226 220
2.1792 -0.404911 -2.07489 186 175 158
1.9931 0.109407 -2.05121 152 137 112
2.00257 -0.267841 -2.05982 180 167 148
1.99868 0.154684 -2.05737 121 104 73
1.90375 0.304429 -2.10071 152 127 89
1.46549 -0.258524 -2.3756 132 114 91
2.00206 0.169591 -2.06175 124 105 73
1.62422 -0.889364 -2.07418 147 182 207
2.0144 0.256483 -2.07565 192 180 161
2.2126 -0.854173 -1.92085 114 120 118
1.68193 -0.665043 -2.14694 184 177 164
1.63528 0.577584 -2.24707 180 188 186
1.64495 0.0415991 -2.24641 220 207 186
1.76635 0.207442 -2.21302 208 194 167
2.21205 -0.577541 -2.08508 228 215 196
1.91644 -0.0360873 -2.09782 121 99 76
1.57471 -0.199656 -2.35057 149 133 111
2.05466 0.610769 -2.11889 118 106 86
1.95367 0.050299 -2.23385 164 147 118
1.81772 -0.842205 -2.07931 131 143 148
2.0488 0.629648 -2.11049 121 110 89
2.01842 0.0070371 -2.06412 133 115 91
2.00354 0.0092425 -2.06709 133 115 91
1.77728 -0.789432 -2.10108 196 203 199
1.55745 -0.654817 -2.19272 129 121 109
1.90398 0.187488 -2.17931 189 160 110
2.2395 -0.839193 -2.11052 147 150 146
1.63639 0.0865816 -2.22989 229 233 229
1.46786 0.219911 -2.32465 102 73 51
1.60077 0.603764 -2.25696 149 149 142
2.12835 -0.436667 -2.0873 172 154 132
2.01268 0.0232453 -2.05619 156 144 125
1.77024 0.069148 -2.21754 209 193 167
1.89587 0.519763 -2.18806 202 207 203
1.74951 0.116819 -2.21809 217 207 186
1.5848 -0.282903 -2.20228 208 204 194
2.0893 0.0723369 -2.01131 194 194 187
2.004 0.109953 -2.03943 173 159 135
1.93874 -0.490946 -2.17329 181 170 148
1.88554 0.194546 -2.24556 162 135 98
1.48261 -0.344442 -2.37878 155 133 105
1.86244 -0.603343 -2.16437 220 204 179
2.00321 0.126384 -2.03895 167 155 131
1.93626 -0.501007 -2.1748 171 159 138
1.47365 0.270866 -2.2911 112 83 66
2.00547 0.137137 -2.03983 167 155 131
1.71699 -0.731023 -2.12107 171 172 166
1.7099 -0.215905 -2.11954 194 192 185
1.98524 0.0268069 -2.22454 182 168 141
2.03786 -0.480339 -2.14836 155 140 120
1.74375 0.489131 -2.23187 195 202 200
1.75198 -0.0400721 -2.23372 191 174 151
1.97922 0.0611063 -2.06 146 132 104
2.08125 0.193004 -2.00244 217 213 201
2.00712 0.155021 -2.04363 144 127 99
2.1214 0.221204 -2.05468 234 238 233
2.01993 0.202669 -2.05121 135 116 87
1.44909 -0.0506129 -2.28857 119 91 64
1.74516 0.187276 -2.21741 210 198 175
1.45526 -0.576278 -2.288 141 126 103
1.51594 0.278979 -2.21216 183 182 174
1.70901 0.116689 -2.22576 215 206 187
2.07956 0.0635811 -2.0127 194 194 187
2.09983 -0.658912 -2.12775 97 72 38
2.08311 0.401183 -2.12918 200 200 192
1.91269 -0.210199 -2.08167 188 170 143
1.55754 0.0182196 -2.20177 190 184 175
1.56792 -0.520808 -2.20519 132 122 107
1.71745 0.0422734 -2.23589 208 193 168
2.03009 0.0231654 -2.0549 164 152 134
2.21796 -0.20279 -2.10012 208 206 198
1.54583 -0.438877 -2.2183 177 176 167
2.02137 0.0540106 -2.04288 159 146 123
2.22544 -0.383944 -2.14708 181 179 172
1.63972 -0.0756884 -2.32159 117 114 107
2.01557 0.0976841 -2.03364 179 174 159
2.08467 0.65162 -2.09546 172 174 168
2.01632 0.126488 -2.03301 174 162 140
2.12501 0.188306 -2.04492 234 239 236
2.0181 0.172942 -2.03428 136 115 83
2.17822 -0.5069 -2.07927 169 158 140
2.17189 0.0205151 -2.07524 228 233 229
1.96759 -0.546204 -2.24148 142 128 110
2.10946 0.476196 -2.12556 171 164 149
2.07462 0.13604 -2.00549 178 176 166
2.11721 -0.470229 -2.1 113 100 86
2.09333 0.634879 -2.09791 121 111 92
2.21021 -0.266311 -2.08731 206 202 194
2.20372 0.259178 -2.08684 198 193 179
2.04676 0.0234636 -2.05241 175 164 147
1.79939 -0.276934 -2.29221 165 147 123
1.81857 -0.687265 -2.12345 227 219 200
2.22392 -0.0481572 -2.1742 168 164 161
2.04035 0.0537348 -2.04327 161 150 131
1.91065 0.0240331 -2.17299 131 105 67
1.9177 -0.535557 -2.17548 189 177 155
1.96788 -0.308128 -2.24297 146 127 103
1.77792 0.0793999 -2.21096 211 197 173
1.76532 0.609576 -2.20765 129 121 105
1.83558 0.387537 -2.20007 206 205 196
1.76375 -0.50837 -2.14394 95 74 47
2.08577 0.36397 -2.12554 206 206 197
1.51483 0.262123 -2.20505 211 215 211
1.7835 0.304892 -2.21705 195 171 131
1.82744 -0.833184 -2.04986 148 168 183
2.04603 0.237126 -2.03513 144 128 104
2.05213 0.25697 -2.04376 106 95 75
1.58648 -0.0838642 -2.19023 113 96 73
2.23954 -0.841335 -2.07573 148 152 148
1.6854 0.296272 -2.23809 213 206 191
1.8209 0.331327 -2.20704 180 157 116
1.59481 -0.787524 -2.15425 186 188 183
2.19107 0.0799736 -2.09562 216 220 214
1.49885 -0.753816 -2.18414 195 201 196
2.11179 0.310287 -2.18494 178 145 102
1.96867 -0.882863 -1.96595 151 166 173
1.81485 0.36974 -2.21279 199 192 178
2.11305 0.313273 -2.10898 177 161 137
1.98607 -0.418405 -2.15757 140 128 106
1.86915 0.583231 -2.18386 180 180 170
1.88399 -0.475967 -2.18518 190 175 151
1.87643 0.0537632 -2.18602 219 206 182
2.11688 0.335627 -2.11189 186 179 163
1.45544 -0.13232 -2.2834 89 67 39
1.82879 0.440127 -2.20328 207 210 203
2.11993 0.3583 -2.11391 187 183 171
1.4667 0.0705912 -2.2287 94 73 51
1.61363 -0.536396 -2.18112 186 183 176
2.18879 0.0963646 -2.09158 212 215 208
2.12754 0.429087 -2.11803 176 176 165
1.85382 0.429937 -2.19828 208 212 208
1.97365 -0.722888 -2.06267 230 218 199
1.82758 0.428608 -2.21005 206 207 201
1.96283 -0.113402 -2.06379 147 130 109
1.73788 0.204423 -2.22199 232 224 204
1.72459 0.625543 -2.2163 108 104 93
2.12958 0.453528 -2.11879 172 169 158
1.71948 0.390611 -2.23219 207 208 202
2.13153 0.478466 -2.11943 162 155 140
1.56145 -0.874163 -2.0949 149 186 211
1.81662 -0.0639812 -2.20674 163 142 114
1.81359 0.480478 -2.20758 201 207 205
1.71957 -0.637098 -2.16828 133 135 132
1.44838 0.14948 -2.20198 159 142 128
1.48909 0.0442075 -2.20731 156 145 132
2.07155 -0.586541 -2.13265 149 131 111
1.71856 -0.65809 -2.14653 174 163 146
1.92008 0.012575 -2.16368 134 106 62
1.92984 -0.537756 -2.16955 187 175 153
1.91144 0.558804 -2.16844 139 134 121
2.18989 0.0200139 -2.0839 217 220 213
2.19781 -0.508045 -2.08674 170 159 146
2.08662 -0.534477 -2.12656 125 109 87
2.06866 0.559659 -2.12675 167 165 154
1.80177 0.227127 -2.21563 209 191 158
2.05539 0.0834036 -2.03676 170 163 146
2.04654 0.161696 -2.01939 180 178 169
1.79156 -0.377861 -2.11585 179 176 167
2.042 -0.0602474 -2.04768 186 166 144
1.9197 -0.148582 -2.07204 190 179 164
2.04485 0.173614 -2.01897 169 155 134
1.93118 -0.527496 -2.25082 149 133 112
1.5613 -0.0988747 -2.19905 160 139 114
2.04644 0.189076 -2.01956 179 175 164
1.57843 -0.161446 -2.35261 149 134 115
1.6518 0.373251 -2.19098 186 176 156
1.66212 -0.158168 -2.19406 172 156 137
2.06133 0.257026 -2.03273 106 95 75
2.19425 -0.316273 -2.10579 214 203 189
2.07941 -0.131619 -2.02978 191 188 184
2.1316 0.314474 -2.10163 194 185 169
2.02956 -0.786984 -2.03193 177 174 162
1.67681 0.136525 -2.24248 224 214 194
2.13805 0.338222 -2.10101 193 188 174
1.96978 -0.7881 -2.04828 178 166 150
1.37434 -0.865621 -2.14902 155 188 208
2.13799 0.359023 -2.10526 186 180 165
2.07896 0.0105374 -2.04666 203 203 194
2.07662 0.0254427 -2.04308 199 198 187
2.09384 0.365066 -2.12435 205 208 201
2.07218 0.0841127 -2.03384 184 180 167
1.64889 -0.201555 -2.32849 164 147 127
2.07104 0.0990139 -2.03147 184 180 167
1.47448 -0.108681 -2.24234 182 134 81
1.48242 -0.657743 -2.2448 160 147 131
2.06474 0.143894 -2.02361 178 171 156
2.07125 0.22314 -2.02167 195 188 174
1.77675 -0.4028 -2.3001 142 120 94
2.08913 0.0848333 -2.03087 201 201 192
1.74807 0.113842 -2.22488 215 205 185
1.69548 -0.267233 -2.13736 147 145 138
2.08883 0.114209 -2.0255 200 199 190
2.08619 0.177551 -2.01557 205 202 191
2.15497 0.150212 -2.04919 233 242 242
2.19069 0.457352 -2.096 193 192 181
1.63204 0.0222118 -2.21615 226 227 221
1.91149 0.0253594 -2.16113 131 105 67
1.66894 0.183169 -2.2363 224 215 196
1.62534 0.0425179 -2.21764 232 229 219
1.87157 -0.561339 -2.19249 219 203 178
1.85005 0.50404 -2.19534 207 216 215
1.85936 -0.0263249 -2.19022 146 120 85
1.93938 0.114775 -2.23226 167 136 95
2.18904 -0.572219 -2.06845 170 156 138
2.17888 -0.00713035 -2.06966 221 224 218
1.777 0.160942 -2.21139 217 206 183
2.20172 -0.255444 -2.10538 214 205 191
1.62476 0.0579944 -2.21832 232 229 219
1.82656 -0.748978 -2.08717 184 183 173
2.14429 0.0103104 -2.19279 196 190 173
1.61945 0.094835 -2.22453 239 240 233
1.4772 0.000939663 -2.2918 45 32 19
1.65911 0.55387 -2.25682 157 156 147
1.45073 0.239954 -2.20989 129 119 101
1.80985 0.0119958 -2.20074 216 202 176
1.60583 0.194216 -2.23292 242 246 243
1.97064 0.633373 -2.13162 124 116 99
1.80285 0.211375 -2.21071 214 197 165
1.59479 0.283883 -2.22537 172 167 152
1.58019 0.385779 -2.20226 174 156 126
1.57725 -0.30179 -2.20717 172 166 157
1.79029 0.445087 -2.21808 199 196 185
2.11112 -0.492044 -2.12048 100 85 60
1.49928 0.212168 -2.19391 210 216 213
2.09962 0.540763 -2.11764 108 87 56
1.65639 -0.0337847 -2.21749 221 205 187
2.10861 -0.112854 -2.0386 217 219 217
1.65899 -0.014189 -2.22648 205 193 179
1.77789 0.220464 -2.21148 201 184 155
1.99439 0.211063 -2.10169 85 65 37
1.64419 0.0516278 -2.23404 199 200 193
1.95768 0.544338 -2.17373 143 137 123
1.58577 0.606718 -2.25059 115 112 101
1.89645 -0.593581 -2.17889 199 184 159
1.89018 -0.0470689 -2.1789 111 88 60
1.64323 0.0775348 -2.2453 189 192 187
1.89154 0.520645 -2.18874 197 201 197
1.94558 -0.00413489 -2.11187 96 73 40
1.47429 0.201189 -2.1936 171 169 160
2.14149 -0.017152 -2.17856 167 137 95
2.08029 0.050154 -2.00934 193 193 186
2.0581 0.0539328 -2.04179 182 178 166
1.63768 0.0951787 -2.24328 221 208 189
1.58168 -0.455744 -2.35169 165 150 130
2.01851 -0.840815 -2.00482 131 144 149
1.99644 -0.462534 -2.23329 145 130 108
1.63369 0.152253 -2.24331 229 227 217
1.75383 -0.833817 -2.06772 155 188 212
1.91229 0.19645 -2.18179 187 159 109
2.22087 -0.84256 -2.06639 136 143 143
2.13607 -0.606078 -2.09194 143 126 107
2.04428 0.0286536 -2.0283 182 178 166
1.54005 0.179718 -2.1944 226 233 231
1.55993 -0.914891 -2.09318 145 187 216
2.03809 -0.845586 -1.98174 117 128 132
1.68559 -0.15796 -2.32013 135 128 116
2.20359 0.262859 -2.13134 210 207 197
2.26279 -0.85199 -2.17839 174 179 175
1.74488 -0.0799832 -2.21558 197 174 145
1.61939 0.221839 -2.25839 221 208 184
1.61514 0.305223 -2.21136 186 180 164
2.20005 0.230489 -2.1543 184 147 103
1.97541 0.240389 -2.09737 135 121 101
1.59682 -0.416712 -2.19286 104 91 75
1.94549 0.028818 -2.11697 125 103 67
1.9128 -0.521425 -2.1842 194 183 163
1.89778 0.510896 -2.18104 202 207 203
1.9845 -0.309119 -2.07634 145 132 112
1.60923 0.389612 -2.18427 191 184 169
1.56407 -0.115674 -2.1986 173 156 136
1.56765 0.615437 -2.26822 128 124 112
1.92681 0.578671 -2.16648 177 179 171
1.6812 -0.0642769 -2.21476 220 212 199
1.86119 0.254419 -2.1987 183 146 82
2.21242 -0.154078 -2.14715 190 186 177
1.66707 0.499214 -2.25233 194 200 197
1.83419 -0.0252928 -2.20211 162 139 110
1.82792 0.461486 -2.20272 206 209 204
1.73663 0.0440943 -2.23345 207 197 178
1.58011 0.00631809 -2.33366 140 119 93
2.22423 -0.705086 -2.10605 234 220 199
1.67651 -0.0346971 -2.22735 214 200 182
1.9494 -0.849377 -2.03827 133 144 148
1.9709 0.00263976 -2.08505 78 60 38
1.53303 0.389328 -2.23386 66 52 27
1.72608 0.150726 -2.22131 216 205 182
1.49833 -0.101396 -2.22808 120 102 76
2.20845 -0.684351 -2.06066 215 198 177
2.07138 -0.0185213 -2.03172 198 197 187
1.96191 -0.590223 -2.15895 184 177 160
2.05833 0.141531 -2.02649 178 171 155
1.9512 -0.0549725 -2.06619 125 105 85
1.66025 0.0533034 -2.24445 218 207 186
1.4904 -0.789977 -2.18649 179 182 177
2.06337 -0.589518 -2.14013 126 114 100
2.04593 0.473699 -2.14345 197 199 192
2.1053 -0.662363 -2.11899 102 74 37
1.6488 0.178327 -2.25176 221 206 182
1.46584 -0.372439 -2.39461 144 117 86
1.51446 0.451773 -2.28818 173 178 175
2.19729 0.153734 -2.15914 182 145 103
2.20536 0.0368219 -2.15784 127 95 57
1.97939 0.161598 -2.11079 122 99 64
1.64187 0.222913 -2.25637 219 212 196
2.10393 -0.195966 -2.04393 203 202 198
2.04586 -0.132648 -2.04094 171 158 144
1.57562 -0.0281544 -2.33368 143 128 106
1.4911 0.161757 -2.1962 148 141 130
2.14668 0.430862 -2.10665 184 180 168
1.63909 0.245773 -2.25679 217 208 193
1.74439 0.338065 -2.22588 207 202 188
1.56611 -0.52847 -2.21401 141 133 119
1.76868 0.162441 -2.22535 216 204 181
1.62683 0.417733 -2.19191 208 211 208
2.1636 -0.255641 -2.07445 229 223 210
1.70068 -0.0477054 -2.22655 211 190 163
1.69132 0.55413 -2.23016 143 139 127
1.4916 0.107574 -2.35465 122 100 79
2.156 0.285355 -2.09701 195 191 180
1.86621 -0.898717 -2.01612 140 159 169
1.46581 -0.096925 -2.28008 67 47 19
1.76762 0.229566 -2.21334 201 184 155
2.02782 0.193748 -2.03592 160 144 120
1.69207 -0.03379 -2.22778 188 169 145
2.15354 0.267944 -2.1705 180 147 104
1.70562 -0.179764 -2.1702 141 126 108
1.6884 0.0173912 -2.24281 207 194 172
2.16386 -0.28119 -2.08947 182 168 154
2.15638 0.247718 -2.095 210 206 194
1.46663 0.422865 -2.28469 148 139 133
1.67703 0.565697 -2.24069 164 167 160
1.68608 0.0528694 -2.24315 210 199 178
1.75238 0.237971 -2.22384 206 193 168
1.66728 0.20131 -2.25079 218 207 185
1.65812 0.257973 -2.25055 215 207 190
1.52807 0.286873 -2.21382 182 178 165
1.53323 -0.0292185 -2.20624 135 122 112
1.5393 -0.579692 -2.21089 148 140 132
1.83218 0.166765 -2.18723 222 205 173
1.65294 0.313424 -2.2496 217 210 198
1.84993 0.500404 -2.20208 204 208 203
1.94427 0.196174 -2.1671 164 134 87
2.05087 0.0987746 -2.03081 170 163 146
1.86562 -0.547297 -2.17625 226 213 189
1.79073 -0.913768 -2.02145 142 163 176
1.85856 -0.0405486 -2.1762 128 106 79
1.6318 0.506228 -2.26923 188 192 191
2.01091 0.104406 -2.04211 183 173 154
2.15513 -0.255158 -2.0601 223 218 209
1.69916 0.549111 -2.23381 143 139 127
1.70808 0.00208165 -2.23695 202 193 175
1.70842 0.0175348 -2.23586 201 196 182
2.0626 0.00152229 -2.03478 197 196 186
1.57726 -0.157647 -2.19537 171 160 147
1.56403 0.370861 -2.19048 153 140 117
1.5075 0.326414 -2.35962 126 117 106
1.51409 -0.232191 -2.36253 156 136 110
1.70327 0.0543642 -2.24036 210 194 166
2.15881 -0.0258366 -2.06275 226 231 227
2.01096 0.109949 -2.05476 185 175 156
1.69952 0.0946128 -2.24127 214 201 177
1.6318 -0.0234738 -2.20039 226 212 195
1.76189 -0.849305 -2.04489 128 141 148
1.69165 0.160483 -2.24181 216 205 183
2.07539 0.551029 -2.13074 138 127 111
1.90502 0.189294 -2.18119 185 155 104
1.68014 0.294652 -2.24998 213 206 191
2.03947 -0.0840866 -2.03511 160 151 143
1.67767 0.318742 -2.24999 215 210 198
1.68781 -0.83448 -2.07339 156 186 208
1.53852 0.0444422 -2.20669 187 185 179
2.12049 0.270146 -2.1807 205 182 147
1.81155 0.391759 -2.20858 204 202 193
1.79383 -0.00092724 -2.27118 162 153 135
1.67667 0.355349 -2.20507 187 182 176
2.02237 0.0208752 -2.03897 164 152 134
1.83084 -0.590944 -2.11296 233 224 205
2.1569 -0.486333 -2.08265 183 164 138
1.67517 0.378026 -2.20253 213 205 190
1.93752 0.239386 -2.11353 106 83 50
1.85065 0.630513 -2.16352 124 115 98
1.85973 0.290042 -2.17589 65 49 31
2.22036 -0.158082 -2.15159 182 179 171
1.78531 0.0667167 -2.22333 212 186 147
1.65739 0.505266 -2.25913 192 194 188
1.65817 0.0785021 -2.24327 215 205 186
1.65099 0.607141 -2.24096 135 131 117
2.0171 0.18083 -2.04369 143 122 90
2.04465 0.0819785 -2.20729 186 158 120
1.73421 -0.0133631 -2.23227 198 190 172
2.09104 -0.11583 -2.0417 208 197 184
1.77859 -0.443563 -2.1472 90 70 45
1.72467 0.0779145 -2.23262 209 197 177
2.20367 -0.27918 -2.16472 168 154 136
1.77645 0.447403 -2.21235 200 204 200
1.78286 -0.0817391 -2.21077 164 138 107
1.72444 0.0937625 -2.23365 214 202 179
2.14891 0.25209 -2.17154 185 156 117
1.78288 -0.634619 -2.11226 197 192 182
1.75879 -0.471621 -2.1599 110 90 61
1.70589 0.271322 -2.24228 209 195 172
1.92749 0.227994 -2.16038 84 75 59
1.56585 -0.500464 -2.20253 104 90 70
1.55759 0.00291096 -2.20374 176 168 158
1.46586 -0.258449 -2.37044 129 105 77
2.00388 0.172923 -2.06329 124 105 73
1.58651 -0.0489588 -2.33528 128 124 113
1.69452 0.369744 -2.24378 216 205 189
1.52789 -0.399718 -2.36916 150 128 102
1.75997 0.307439 -2.21913 202 192 170
2.01204 -0.299455 -2.06681 151 142 128
1.51654 0.146027 -2.34581 130 116 96
1.45399 0.388802 -2.29034 158 156 146
1.97075 0.310118 -2.08321 230 225 210
1.90698 0.243699 -2.23871 171 139 98
1.76762 -0.62655 -2.13262 197 187 173
1.69168 0.421175 -2.2479 207 203 193
1.62423 -0.164859 -2.33519 161 150 135
1.68379 0.504047 -2.2521 190 195 193
2.06167 0.0356729 -2.03115 199 198 187
1.91998 0.00883823 -2.15992 137 111 71
1.68826 0.0768815 -2.22409 202 198 183
1.67487 0.606199 -2.2303 121 118 105
2.03421 -0.166094 -2.21362 148 139 126
1.67251 0.632797 -2.22597 111 105 91
1.75396 0.484535 -2.21817 192 201 201
1.75674 -0.0485067 -2.21705 205 195 182
1.75096 0.00154815 -2.22636 206 198 180
1.74059 0.511019 -2.22764 194 202 201
1.97897 -0.0396082 -2.05008 162 154 141
1.70235 0.288274 -2.23541 210 201 185
1.74829 -0.489836 -2.16578 112 91 61
2.14638 -0.255748 -2.04047 215 208 197
1.84305 -0.807524 -2.09234 160 153 144
1.83149 -0.257816 -2.09117 134 124 112
1.84212 0.252605 -2.20237 190 162 111
1.46462 -0.556053 -2.38082 147 123 94
2.12451 -0.514917 -2.09982 84 68 45
1.74326 0.0601053 -2.22715 210 198 177
1.98071 0.143031 -2.07522 145 132 106
1.87737 0.163329 -2.19062 201 179 143
1.744 0.0771755 -2.22781 212 200 178
1.49654 -0.689731 -2.24234 145 140 126
1.48812 -0.184198 -2.24351 83 66 42
2.14394 -0.00424795 -2.17913 187 175 155
1.72712 0.318902 -2.23525 211 206 194
1.72278 0.34423 -2.23863 210 210 202
1.71398 0.44786 -2.24205 197 196 188
1.99724 -0.0601249 -2.04477 167 157 143
2.22618 -0.383118 -2.12427 210 205 195
2.21443 0.124027 -2.12436 189 180 165
1.70928 0.503154 -2.24407 184 184 178
2.07946 0.440752 -2.12982 193 193 185
1.48187 -0.676837 -2.24451 128 107 82
1.49224 -0.359711 -2.37879 156 135 108
1.70457 0.55858 -2.24195 143 138 124
2.16341 -0.758208 -1.98868 187 178 165
2.08444 0.424814 -2.12987 196 196 187
1.70888 0.0364287 -2.23495 200 192 176
1.70011 0.582714 -2.2348 170 174 169
1.79294 -0.494083 -2.13452 140 119 92
1.6936 0.658516 -2.21285 167 171 165
1.9338 0.158666 -2.23195 176 151 115
1.77784 -0.049604 -2.21553 216 214 207
1.76808 0.496268 -2.21986 195 198 195
1.64465 0.543752 -2.24445 157 156 147
1.64913 0.0233117 -2.24426 210 195 175
1.76026 -0.462374 -2.16178 115 91 59
1.775 -0.0144017 -2.21786 209 199 179
1.93097 -0.0532437 -2.06456 117 95 72
1.7102 -0.0299208 -2.21935 189 160 130
2.01319 -0.0204159 -2.05223 170 161 149
2.00871 -0.0233566 -2.21719 187 175 151
1.76986 0.0614196 -2.22317 211 194 168
1.76178 0.140373 -2.22669 218 206 184
1.60987 -0.0731845 -2.32768 132 122 108
1.76443 -0.357832 -2.12858 145 139 127
1.84577 -0.448833 -2.16992 213 204 187
1.6589 0.33037 -2.21148 143 130 115
1.60824 -0.067594 -2.17175 210 198 186
1.76018 0.161366 -2.22696 216 204 181
2.16988 0.455792 -2.10312 182 176 160
1.74823 0.319951 -2.23125 208 202 188
2.04588 -0.715446 -2.09887 204 201 193
1.92684 -0.022663 -2.10384 113 96 76
1.99273 -0.265314 -2.06486 196 184 162
2.04776 -0.712335 -2.09396 211 208 199
1.69061 0.0610783 -2.24021 204 196 179
2.03489 -0.396502 -2.13369 114 112 100
1.92652 0.0502428 -2.13648 145 125 90
1.53939 0.370406 -2.21482 99 84 57
2.1152 -0.348615 -2.20168 131 114 91
1.74258 0.394908 -2.23333 208 209 204
1.72578 0.039096 -2.23307 204 197 181
1.44433 0.137857 -2.21323 115 97 73
2.08929 -0.485164 -2.12497 130 117 96
2.07347 0.573846 -2.1224 167 165 154
1.9751 0.0173116 -2.07951 119 101 76
2.08743 -0.486471 -2.13323 130 117 96
1.73235 0.531024 -2.23776 185 191 188
2.19007 -0.368213 -2.06709 188 172 151
1.66857 0.645576 -2.22209 168 170 162
2.02131 -0.0383318 -2.04122 170 161 148
2.18572 -0.371019 -2.18501 117 95 67
1.7328 0.0024618 -2.23165 203 195 178
1.73019 0.558405 -2.23574 142 138 128
2.17204 -0.413525 -2.18351 129 105 77
1.89542 -0.139295 -2.08284 140 126 112
1.57702 0.590391 -2.26307 160 164 160
1.73442 -0.0196906 -2.22667 171 154 133
1.72807 0.58349 -2.22925 173 178 173
1.44632 -0.651014 -2.27572 89 73 53
2.21281 -0.165091 -2.11689 196 189 179
1.73219 -0.0456173 -2.219 187 160 132
1.72769 0.605882 -2.2171 130 124 110
1.78424 0.480438 -2.2082 199 205 202
1.79643 -0.0641843 -2.21095 185 160 129
1.78151 0.535833 -2.21745 189 190 183
1.7932 -0.0126058 -2.21487 208 193 168
1.9724 -0.118878 -2.23143 131 123 110
1.86227 -0.0523917 -2.13796 138 122 100
1.77705 0.18727 -2.22095 213 197 168
1.77901 0.205331 -2.22273 212 188 149
1.77755 0.227466 -2.22317 206 180 138
2.07651 0.145858 -2.01709 178 175 165
2.11018 -0.124348 -2.03477 211 214 214
2.00219 0.154137 -2.21232 173 147 112
1.46503 0.0924288 -2.21223 137 121 103
1.99394 -0.400041 -2.15474 136 122 95
1.61462 0.287114 -2.23492 161 153 139
1.76814 0.369466 -2.22576 206 201 189
1.80349 -0.665066 -2.11617 192 180 162
1.62451 -0.210946 -2.19817 140 130 114
2.15985 -0.702201 -2.06647 223 211 195
2.10345 -0.719694 -2.09452 117 106 93
1.76829 0.420149 -2.22505 202 201 193
2.19522 0.078941 -2.09262 215 218 212
1.52035 -0.148012 -2.22254 105 87 62
2.09614 -0.0333746 -2.19411 188 172 145
1.64955 0.102926 -2.24698 222 208 184
1.68129 -0.697189 -2.14721 184 184 176
1.63104 -0.346489 -2.17103 162 164 159
1.74921 0.627428 -2.20159 112 104 89
1.43994 -0.228593 -2.27611 134 101 66
1.81655 -0.0653289 -2.20288 163 142 114
2.22062 -0.174599 -2.15142 185 176 165
1.81447 -0.0451881 -2.20487 166 151 130
2.01716 0.116262 -2.02569 175 164 145
1.54353 0.0425294 -2.20287 172 170 162
2.223 -0.226397 -2.14778 215 209 197
1.56836 0.135321 -2.19894 221 226 222
1.70116 -0.286123 -2.31676 181 169 150
1.45566 -0.345888 -2.28672 163 149 128
1.81057 0.0277066 -2.20995 213 200 173
2.17205 0.388118 -2.10252 192 191 181
1.79196 0.322522 -2.21611 198 187 165
2.1568 -0.0242951 -2.17798 179 149 111
1.70879 -0.455334 -2.17133 115 99 75
1.79298 0.344803 -2.21859 195 186 168
1.8172 0.000696324 -2.20985 212 197 170
1.80922 0.546504 -2.20805 168 167 158
1.82696 -0.546733 -2.28401 154 137 115
2.119 0.140189 -2.00698 221 221 213
2.04521 -0.452609 -2.14073 142 131 113
1.91743 0.244949 -2.14119 75 57 36
1.79318 0.372478 -2.21605 198 190 173
1.79177 0.397604 -2.21737 200 195 184
1.65108 0.606021 -2.25083 135 131 117
1.66046 0.0743344 -2.24924 219 205 182
1.78874 0.420785 -2.22068 200 194 181
1.77512 0.582621 -2.21073 179 183 178
2.16974 0.426491 -2.09779 184 182 171
1.7763 0.602033 -2.20149 158 154 143
1.93755 -0.0583255 -2.06714 121 100 79
1.77216 0.651085 -2.18831 172 173 165
1.83177 -0.00814348 -2.26361 179 164 138
1.68434 -0.783469 -2.13172 174 170 161
1.67344 -0.219801 -2.13741 185 185 177
1.62514 -0.30507 -2.3413 169 159 143
1.75364 -0.624252 -2.31043 162 140 114
1.83414 -0.0070078 -2.20058 197 178 146
1.74211 -0.150169 -2.15965 137 117 96
1.61297 0.059287 -2.19989 232 236 234
1.73363 0.357628 -2.28868 164 149 127
1.83099 0.568269 -2.19874 169 172 165
1.83332 0.00909893 -2.20132 191 170 135
1.83355 -0.455886 -2.1379 227 218 199
2.12001 -0.306838 -2.0308 165 155 139
1.507 0.111091 -2.201 196 196 192
1.82567 0.0845232 -2.20714 188 164 124
1.46681 0.0129355 -2.30508 86 54 30
1.75841 -0.625164 -2.13331 172 165 153
1.8245 0.163381 -2.20976 217 198 163
2.04871 0.221107 -2.02156 164 151 130
1.87177 -0.764877 -2.07808 179 171 158
1.82132 0.228373 -2.20817 216 197 160
1.82157 0.253385 -2.20912 203 181 140
1.81954 0.3234 -2.20797 186 167 132
1.68388 0.311619 -2.23732 219 214 202
1.95135 0.0120322 -2.10076 93 77 54
1.95222 0.0124857 -2.08578 93 77 54
1.8197 0.343964 -2.2086 189 173 144
2.05421 -0.745513 -2.02571 166 159 149
1.78646 0.10056 -2.2174 220 203 175
1.64221 0.311507 -2.25211 202 194 182
1.81125 0.446887 -2.21445 204 206 200
1.93088 0.515994 -2.1755 196 202 201
1.56608 0.269438 -2.24244 123 122 120
1.79881 0.623884 -2.18572 125 117 101
1.79682 0.648692 -2.1798 170 170 160
1.70034 -0.839551 -2.10738 147 186 217
1.57643 0.26266 -2.23506 128 122 113
1.98687 -0.0736653 -2.05647 141 124 106
1.74414 0.311654 -2.22555 207 199 181
1.71857 0.510813 -2.23992 186 186 182
1.55745 0.102147 -2.19992 210 214 208
2.22894 -0.418266 -2.10627 214 211 204
1.85674 -0.606373 -2.18145 219 204 180
1.78635 -0.904318 -2.02837 143 166 180
1.85031 -0.0557026 -2.18544 122 99 72
1.86333 -0.587122 -2.18474 223 211 190
1.78878 -0.921221 -2.02713 138 166 184
1.85075 -0.038843 -2.18342 113 87 56
1.8417 0.295131 -2.20238 181 150 97
1.51515 -0.762701 -2.17821 197 203 198
1.83881 0.345228 -2.20569 184 165 127
1.71668 0.0432351 -2.23971 207 184 150
1.69966 0.336143 -2.2328 213 212 204
1.82585 -0.0672986 -2.17127 152 133 112
1.59918 0.0973089 -2.19991 233 239 239
2.0304 0.0449842 -2.0286 170 165 151
2.08858 0.155741 -2.01656 197 197 188
1.7683 0.346345 -2.2169 199 191 175
1.57249 0.135335 -2.18771 221 226 222
2.12622 -0.850123 -1.95676 120 128 129
1.83345 0.447811 -2.20664 207 210 203
1.72835 -0.414827 -2.15115 94 79 57
1.99435 -0.487895 -2.2341 145 130 109
1.9289 0.168764 -2.17534 182 156 115
2.18949 -0.139844 -2.16102 162 150 135
1.83186 0.52795 -2.20839 197 204 203
1.67725 -0.387608 -2.16376 142 140 133
1.84512 -0.431696 -2.1828 204 186 156
1.82568 0.600454 -2.18816 126 117 101
2.01745 0.334485 -2.0969 228 226 216
1.83408 0.0356677 -2.19968 164 143 110
1.82786 0.539211 -2.20079 197 204 203
1.59915 0.397214 -2.17655 194 192 187
1.77716 -0.947001 -2.02949 140 169 189
1.82329 0.622837 -2.1789 111 101 83
1.81961 0.649947 -2.17323 173 172 163
1.97116 -0.646088 -2.1614 202 189 168
2.01987 -0.160012 -2.04954 160 146 127
1.82081 0.681174 -2.17817 166 172 167
1.99587 -0.274717 -2.04827 195 189 174
1.69584 0.0382519 -2.22885 203 195 179
1.4409 -0.626535 -2.28993 123 108 90
1.87826 -0.587829 -2.1797 223 211 190
1.86898 -0.0526909 -2.17404 129 107 81
1.85445 -0.598231 -2.15825 225 210 187
1.84102 -0.083775 -2.15994 162 144 123
1.87872 -0.537896 -2.18277 213 199 174
1.86705 -0.00584406 -2.18597 172 151 116
2.13545 -0.148532 -2.06886 226 214 194
1.965 -0.166579 -2.06839 164 150 133
2.16455 0.291836 -2.0941 190 186 173
1.87737 -0.478602 -2.19018 196 182 158
1.86917 0.0664887 -2.19423 216 197 168
1.43868 -0.381681 -2.33163 120 88 55
2.10612 0.179733 -2.0244 225 226 216
1.88057 -0.456405 -2.19019 186 170 144
1.9705 -0.712402 -2.14352 209 203 190
1.8686 0.0856688 -2.19437 217 200 172
2.0238 -0.023556 -2.03289 168 163 155
1.86757 0.124999 -2.19538 179 158 128
1.86625 0.186883 -2.19859 192 156 99
1.96269 0.0202067 -2.09344 98 78 50
2.17284 -0.68938 -2.06938 198 177 157
1.86559 0.208304 -2.1986 192 154 93
2.19598 -0.0587979 -2.1751 161 141 118
1.47991 0.0802186 -2.20786 118 99 79
1.77201 -0.546844 -2.30129 167 152 131
2.21349 -0.716458 -2.07465 229 213 192
1.87744 -0.898824 -1.99918 148 163 169
1.97224 -0.0501423 -2.05143 160 150 135
1.88515 0.0274894 -2.25057 171 150 117
1.65368 0.0696349 -2.25671 219 205 182
1.86096 0.2958 -2.19135 121 106 77
1.85939 0.420488 -2.20082 208 212 208
2.01526 0.251788 -2.09004 172 158 134
1.85775 0.472655 -2.20075 198 190 175
2.17988 0.308942 -2.0748 219 221 212
2.14803 -0.569252 -2.08364 187 175 158
1.85691 0.499525 -2.20074 202 195 181
2.11371 0.0608305 -2.0225 223 224 217
1.74195 0.269849 -2.22604 205 194 172
1.99556 -0.510501 -2.15338 163 148 126
1.98021 0.586149 -2.14673 176 178 169
1.61315 0.256688 -2.251 213 199 182
2.12367 -0.557691 -2.09694 91 74 52
2.00563 0.173666 -2.04904 140 121 92
1.52185 -0.485004 -2.3783 153 134 110
1.84733 0.620886 -2.17087 124 115 98
2.17027 0.102039 -2.07866 227 232 230
2.18275 -0.429515 -2.07227 183 169 148
1.88602 -0.0489881 -2.16073 119 95 67
1.62354 -0.810895 -2.15526 135 137 133
1.76801 -0.492361 -2.30407 157 139 116
1.90235 -0.106851 -2.07676 172 162 148
1.72952 -0.190637 -2.11545 172 158 142
1.54182 -0.243571 -2.20928 165 159 148
1.53308 0.304409 -2.21056 155 147 129
1.53935 -0.257767 -2.35923 150 136 117
1.68961 0.133459 -2.23034 216 207 187
1.99735 -0.728481 -2.0604 200 195 186
1.9882 -0.200967 -2.05722 163 153 138
1.91292 -0.546956 -2.17653 189 178 157
1.90326 -0.0148442 -2.1789 148 110 51
1.89845 0.557425 -2.17471 124 118 103
1.75082 -0.0152371 -2.22568 199 189 170
1.74204 0.534711 -2.22722 190 196 194
1.88909 0.0676345 -2.18897 192 168 128
1.88881 0.0867013 -2.18961 190 165 126
1.6737 -0.270905 -2.1547 102 89 71
1.87195 0.308242 -2.13673 120 98 65
2.13567 0.171905 -2.17692 181 148 106
1.67645 -0.192403 -2.32267 180 157 129
1.6353 -0.952961 -2.06155 145 179 205
1.88478 -0.716211 -2.12084 183 183 176
1.93459 -0.425149 -2.17564 172 164 146
1.86928 0.347792 -2.11858 146 122 85
1.89871 -0.0892163 -2.08768 137 114 89
1.87979 0.524194 -2.19155 201 208 207
1.97784 -0.578717 -2.15229 179 170 153
1.87889 0.548488 -2.18973 155 152 140
1.48922 0.472401 -2.2892 154 152 149
1.86929 0.643628 -2.15748 175 175 167
1.98853 -0.121413 -2.06644 148 131 113
1.46565 -0.17675 -2.2611 88 69 43
1.47292 -0.703603 -2.25641 154 151 142
1.94471 -0.0340476 -2.15309 112 83 40
1.76157 -0.389431 -2.14564 94 83 66
1.78424 -0.408837 -2.29611 147 127 102
2.18184 -0.649852 -2.07055 181 165 145
1.8679 -0.578816 -2.16467 231 219 197
1.90892 0.0501355 -2.18299 155 123 75
1.98048 -0.726639 -2.13568 196 199 195
2.19441 0.103564 -2.09046 212 215 208
2.21291 -0.462329 -2.09002 229 217 200
1.90816 0.107343 -2.18286 182 154 111
1.89136 0.286337 -2.12697 121 101 70
1.74876 0.362367 -2.22294 208 206 198
1.77341 -0.353427 -2.11252 145 146 141
1.76129 -0.796842 -2.1102 180 181 175
1.91244 -0.466234 -2.16909 186 175 154
1.90343 0.0740958 -2.17067 172 144 103
1.89666 0.599397 -2.16618 154 152 140
1.99732 -0.681397 -2.14812 206 189 165
1.56628 -0.537041 -2.20215 138 129 115
1.55769 0.0362776 -2.20208 191 187 178
1.93822 -0.722656 -2.0602 205 196 181
1.90537 0.0642114 -2.15584 153 136 103
1.89609 0.616201 -2.15655 116 109 93
1.92745 -0.543586 -2.15852 187 176 155
1.69244 -0.459353 -2.17532 182 177 163
1.9218 -0.0162674 -2.15885 129 103 67
1.71298 -0.548471 -2.31343 164 148 128
1.66112 -0.0680828 -2.22138 221 208 187
2.16308 -0.35974 -2.05682 224 219 213
2.1548 0.183676 -2.05673 229 232 225
1.57316 0.203826 -2.21462 225 228 222
1.92761 0.0892692 -2.17557 150 123 80
1.72056 -0.85218 -2.14629 62 69 70
1.77511 -0.796757 -2.10631 192 193 186
1.846 0.641635 -2.16555 147 142 128
1.76931 -0.265364 -2.11181 177 173 165
1.51534 0.178973 -2.1938 188 190 184
1.92618 0.109817 -2.17485 156 130 89
2.07975 0.20463 -2.19346 181 149 108
1.51499 0.0618438 -2.19563 201 203 198
1.92671 0.12719 -2.17433 171 147 109
1.91117 0.263072 -2.12497 111 88 55
1.90899 0.284606 -2.10924 119 94 57
2.16999 -0.127934 -2.17477 154 147 136
1.9273 0.497241 -2.17894 198 198 190
1.44726 -0.525008 -2.37746 126 97 65
1.92717 0.524234 -2.17879 187 189 182
1.64298 -0.248555 -2.17653 109 87 56
1.79455 0.0844639 -2.20975 219 208 185
1.92475 0.0524384 -2.16001 135 111 74
1.92136 0.595769 -2.15981 136 133 123
1.67316 -0.384794 -2.32541 166 150 128
2.21906 -0.530894 -2.12001 218 212 201
1.60463 -0.0469611 -2.18019 222 212 202
1.82972 0.602189 -2.19109 126 117 101
1.83474 0.114307 -2.19405 187 166 131
1.82324 0.656401 -2.17266 173 171 160
1.84305 -0.477462 -2.17241 218 211 196
1.91439 -0.00728806 -2.15738 150 123 86
2.21548 -0.00157304 -2.15181 198 194 185
1.75864 -0.0244938 -2.21951 197 188 173
1.82415 -0.296354 -2.28391 151 137 118
1.93559 0.0106071 -2.14353 114 88 51
1.93508 -0.920439 -1.98285 131 150 158
1.5572 -0.314683 -2.20907 174 167 156
1.5537 0.215173 -2.21124 221 226 221
1.87406 0.320034 -2.12016 139 111 67
1.94085 0.0865294 -2.23785 205 188 160
1.79415 -0.107377 -2.16661 160 139 114
1.95061 -0.386343 -2.15642 142 131 109
1.9426 0.128503 -2.15958 137 111 71
1.94731 0.212083 -2.16706 108 92 66
1.61361 -0.225148 -2.20298 156 141 117
1.93291 0.2462 -2.12427 100 79 50
1.92815 0.265122 -2.10885 131 107 71
1.92529 0.283588 -2.09977 139 112 71
1.96201 -0.484319 -2.16141 175 161 137
2.05287 0.0919895 -2.01875 175 175 168
1.94786 0.573737 -2.15931 176 179 174
1.51542 -0.586824 -2.22355 143 137 126
1.94099 0.614452 -2.14127 131 125 111
1.83766 -0.693524 -2.16087 225 211 195
1.95379 -0.0245374 -2.13462 99 72 34
1.88362 -0.428917 -2.26745 157 144 125
1.80322 0.456077 -2.21557 204 206 200
1.94978 0.0280924 -2.11974 125 103 67
1.74258 0.239901 -2.22637 206 193 168
1.43621 -0.859484 -2.1286 140 172 192
1.4486 -0.446568 -2.3639 122 94 63
1.8961 -0.898099 -1.99168 144 166 179
1.94927 0.0450172 -2.11911 139 117 81
1.83151 -0.401154 -2.13485 228 223 206
1.51405 -0.560843 -2.2397 142 133 118
1.94942 0.0619523 -2.11877 129 109 76
2.0232 -0.357204 -2.14616 111 92 59
1.83795 -0.26486 -2.27841 156 147 132
1.95389 0.234727 -2.10891 109 89 60
1.85889 0.556794 -2.19258 150 145 132
1.4653 -0.365481 -2.38098 144 117 86
2.11584 -0.424111 -2.09883 94 84 70
2.09913 0.608932 -2.09903 117 104 82
1.94361 0.283611 -2.09302 209 198 177
1.62651 -0.745579 -2.14607 189 188 182
1.67453 -0.466723 -2.32564 163 147 126
1.53401 0.368908 -2.23393 84 69 46
1.60062 -0.377787 -2.35062 165 149 127
1.5381 -0.150915 -2.35715 119 119 112
2.1975 0.129143 -2.09892 216 220 214
1.90504 -0.0812504 -2.09945 113 89 60
2.21365 -0.469114 -2.1022 230 214 192
1.76551 0.564669 -2.21866 157 148 131
1.77626 0.0176735 -2.21837 214 202 180
1.97058 0.522214 -2.16659 192 196 192
2.00255 0.189325 -2.21266 174 148 112
1.98633 -0.544407 -2.15809 169 157 138
1.85884 -0.257186 -2.07317 122 115 103
1.97271 0.548131 -2.16167 146 138 123
1.80957 0.332552 -2.20776 191 177 148
1.9617 -0.0165122 -2.1179 86 61 31
2.15431 -0.436508 -2.0829 170 154 134
2.14031 0.62764 -2.08166 104 92 72
1.84107 0.0691936 -2.19722 202 183 150
1.62486 -0.5022 -2.18399 196 193 185
1.9618 -0.00134505 -2.10653 93 67 32
1.61473 0.00638476 -2.20922 218 218 212
1.67694 0.163193 -2.24139 222 209 185
1.88771 -0.842937 -2.08982 85 93 95
1.9612 0.0173308 -2.10025 99 77 46
1.6006 -0.0457831 -2.33876 168 168 162
1.72592 -0.714799 -2.11952 189 193 188
1.60313 -0.0488538 -2.33073 118 107 91
1.67418 0.14575 -2.24387 221 209 186
1.95998 0.0342771 -2.09815 98 83 61
2.17227 -0.618872 -2.0754 174 158 139
2.16368 -0.0515063 -2.07177 213 210 200
1.96162 0.0849702 -2.09939 132 118 90
1.96482 0.118293 -2.10594 135 113 78
2.08871 -0.150643 -2.04909 210 190 168
2.00226 -0.141933 -2.05311 151 137 122
1.97392 0.151395 -2.12563 117 93 57
1.65011 0.0205384 -2.22533 225 224 217
1.86254 0.215972 -2.19719 192 154 93
1.72828 -0.268018 -2.30718 159 144 125
1.97754 0.169871 -2.13262 104 81 47
1.98539 0.211547 -2.15061 103 78 40
1.61822 0.554499 -2.25709 140 135 122
1.52357 0.271696 -2.21004 216 220 214
1.53464 -0.0125319 -2.20757 154 141 127
1.84245 -0.409221 -2.1593 192 181 161
1.88647 -0.0996456 -2.25135 143 135 119
2.00347 -0.48164 -2.23171 147 131 110
1.8654 -0.458828 -2.183 186 170 144
1.86484 0.141113 -2.18857 207 188 156
2.00719 -0.314226 -2.2254 150 134 114
1.96677 -0.239227 -2.07342 194 179 157
1.95992 0.34277 -2.07805 226 222 212
1.7819 -0.510179 -2.29994 134 111 84
1.90151 -0.852139 -2.06787 109 120 125
1.85423 -0.183063 -2.09318 149 134 117
1.98621 -0.239034 -2.22918 147 139 129
1.58231 0.170326 -2.21058 228 234 231
1.73997 0.21165 -2.22668 222 211 190
1.9859 -0.1321 -2.0575 152 138 123
1.98676 -0.848009 -2.03918 118 133 141
1.99652 0.522233 -2.1586 182 184 179
1.76788 -0.544268 -2.1652 98 82 59
1.5991 -0.554407 -2.19164 212 208 200
1.97125 -0.00930674 -2.08453 80 61 39
1.97251 0.0876261 -2.07725 131 113 83
1.97178 0.103584 -2.08335 135 116 83
1.86773 -0.465684 -2.18595 196 182 158
1.8576 0.152941 -2.1866 188 166 131
1.65402 -0.505139 -2.3318 158 146 127
1.99183 0.190639 -2.11639 119 97 65
1.98756 0.227309 -2.10782 71 52 29
1.63098 -0.164128 -2.20279 172 148 117
1.9808 0.283814 -2.09244 230 230 222
1.75153 0.146273 -2.22065 214 203 182
1.59078 -0.35735 -2.3506 155 137 114
1.98248 0.305062 -2.08476 239 239 233
2.17386 -0.0444362 -2.07259 213 210 200
2.18024 -0.582239 -2.07524 171 158 138
1.94176 -0.887253 -1.97424 156 166 170
1.81172 0.423365 -2.21183 205 206 198
2.01062 0.592784 -2.13487 173 175 168
2.00981 0.612003 -2.12282 130 123 106
1.86031 -0.452223 -2.18451 212 197 169
1.85442 0.0944734 -2.18582 210 196 168
1.70041 0.227984 -2.23571 215 207 191
1.98104 0.070147 -2.05746 147 132 105
2.01252 -0.376226 -2.22694 148 135 116
1.53216 -0.881336 -2.10136 146 184 211
1.54656 0.558908 -2.27812 161 153 138
1.98611 0.135686 -2.07379 133 115 81
1.54196 -0.356804 -2.36687 153 135 112
1.66119 0.0549389 -2.23808 193 193 182
1.62638 0.177285 -2.24982 231 228 219
1.86628 -0.412613 -2.27342 153 139 121
1.89561 -0.630772 -2.17969 202 187 160
1.99338 0.169355 -2.08114 135 114 80
2.02417 -0.853595 -1.9879 126 137 140
1.70046 0.254322 -2.23515 211 203 185
1.58937 -0.565546 -2.35344 159 142 120
2.22737 -0.342097 -2.10296 205 204 199
1.6922 0.423617 -2.23586 202 202 194
2.0037 0.229621 -2.08366 130 109 78
1.98438 0.151158 -2.08499 138 116 81
1.7105 0.254306 -2.23282 210 202 184
2.02951 0.156339 -2.02623 170 160 142
1.75193 0.0158171 -2.28685 168 163 149
1.59859 0.16674 -2.21739 234 238 234
2.00485 0.3059 -2.08546 240 245 243
1.7915 -0.0135123 -2.27975 183 172 151
2.04882 -0.628377 -2.13617 171 151 128
1.9994 -0.0045086 -2.0683 133 115 91
1.767 0.188488 -2.2129 213 201 177
1.64145 -0.672817 -2.16046 205 209 205
1.85315 -0.0654549 -2.1505 144 117 86
1.47441 0.271217 -2.31055 111 81 62
2.001 0.137884 -2.05584 133 111 77
1.75268 0.0432949 -2.22759 208 196 177
2.02624 0.0302729 -2.04839 164 152 134
2.13838 0.261962 -2.17519 190 162 121
2.12332 -0.438353 -2.11607 85 67 39
2.01319 0.226677 -2.07031 141 121 91
2.03852 -0.794994 -2.03203 177 174 162
2.17305 -0.116199 -2.08364 185 172 154
2.16597 0.388357 -2.08625 192 191 181
2.02366 0.287685 -2.0844 231 233 228
2.15645 -0.215491 -2.09328 201 179 151
1.65406 0.353068 -2.19376 178 170 152
1.66146 -0.175798 -2.19129 174 160 144
1.56818 -0.0447615 -2.17822 170 157 141
1.59335 -0.161714 -2.34855 150 138 120
2.02595 0.488366 -2.14957 195 197 191
1.95932 0.0510364 -2.09718 110 94 66
1.92394 -0.0999298 -2.08798 165 151 135
2.02896 0.310349 -2.09244 230 241 243
1.85534 0.0751694 -2.26694 163 144 116
1.86491 -0.471055 -2.27103 152 139 120
2.00193 0.26349 -2.08469 191 181 162
2.06667 -0.663061 -2.12629 165 144 120
1.79087 0.604631 -2.19069 122 116 103
1.78665 0.466917 -2.21766 197 198 190
2.10254 -0.244303 -2.19738 158 147 133
2.06386 0.520147 -2.13872 184 188 184
2.05494 0.610635 -2.11107 118 106 86
2.06374 -0.043067 -2.02754 178 168 159
2.01094 0.0291409 -2.05272 156 144 125
1.9969 -0.0739903 -2.04365 142 127 112
1.8033 -0.478385 -2.1249 163 150 131
1.72175 -0.020803 -2.24004 195 177 147
2.00927 0.0759003 -2.04396 174 165 147
1.94372 -0.838077 -2.05567 123 135 139
2.02399 0.207826 -2.05525 128 108 76
2.04651 -0.287426 -2.07092 154 139 118
2.03523 0.265967 -2.06904 206 202 194
2.09794 -0.676528 -2.12552 121 98 68
2.07651 0.41504 -2.12747 201 199 189
2.08401 0.492905 -2.13194 168 162 146
1.65319 0.163811 -2.24689 219 207 188
2.08634 0.519918 -2.13298 139 126 105
2.05216 -0.283186 -2.04907 167 156 137
2.04491 0.245265 -2.05262 146 130 106
2.21895 -0.207716 -2.09787 208 206 198
1.62376 -0.280277 -2.18483 132 125 112
2.08774 0.341989 -2.11428 204 210 208
1.70988 -0.645099 -2.15064 143 138 129
1.62759 0.187316 -2.24433 227 222 212
2.10898 0.0735267 -2.02684 208 209 200
1.49873 -0.622597 -2.2234 126 111 92
1.83469 -0.601461 -2.14506 198 179 154
2.19728 -0.604123 -2.08293 217 204 187
1.74062 0.420997 -2.23422 200 203 199
2.18975 -0.0555152 -2.08393 207 207 198
1.85937 0.352461 -2.19572 155 118 66
1.98719 -0.556703 -2.1543 175 161 139
2.10219 0.441698 -2.12627 185 182 171
1.8537 0.101606 -2.19131 204 185 152
2.01323 -0.367361 -2.22975 148 135 116
1.86858 -0.841112 -2.06466 125 139 145
2.10679 0.493419 -2.12748 158 149 130
2.09571 0.629744 -2.09038 121 111 92
2.04276 0.0156716 -2.04847 184 175 159
2.04694 0.171317 -2.03067 177 168 151
2.04749 0.187228 -2.03068 176 164 145
1.88885 -0.49574 -2.26327 148 137 120
2.05233 0.225611 -2.03469 170 156 136
1.61243 -0.847346 -2.08476 141 170 190
1.88711 0.119918 -2.24877 159 125 83
2.00471 -0.0396245 -2.04191 169 163 154
1.49899 -0.0713991 -2.35384 133 115 93
1.87589 0.0905428 -2.18763 217 200 172
1.88689 -0.452156 -2.18581 185 171 147
2.0638 -0.300221 -2.04216 156 151 140
2.0568 0.24435 -2.03937 172 160 143
1.51625 0.356924 -2.26181 123 105 71
2.11509 0.367897 -2.11716 185 182 171
1.79849 0.403546 -2.21895 201 200 192
1.68414 0.420937 -2.23663 206 201 190
1.8261 -0.353414 -2.12802 201 188 164
2.12471 0.587459 -2.10212 178 181 175
2.06097 -0.0147622 -2.05368 185 176 158
2.05868 0.00141346 -2.04776 177 167 148
1.85893 -0.715014 -2.11923 196 194 186
1.89989 -0.858071 -1.99461 121 140 150
1.94247 0.0476061 -2.13163 139 117 81
2.05734 0.0170644 -2.04339 190 188 178
1.89263 -0.853929 -2.04205 131 143 148
1.44442 0.165781 -2.22077 109 89 67
2.05648 0.0325229 -2.03978 182 178 166
1.47041 0.107552 -2.21245 146 132 116
1.69766 -0.230078 -2.12682 179 181 176
2.06 0.157733 -2.02666 178 171 156
1.52832 0.107829 -2.34589 134 121 102
1.45123 -0.0925436 -2.33097 117 86 59
2.1258 0.320327 -2.10381 190 183 168
2.14366 0.608425 -2.08866 120 109 89
2.11549 -0.774149 -2.01245 157 152 143
1.5438 -0.486442 -2.21881 171 169 159
2.07077 0.0490366 -2.03214 194 192 181
2.07042 0.0643979 -2.02925 188 185 173
1.70899 -0.627702 -2.16917 152 152 147
1.98436 0.119929 -2.073 129 114 84
1.47731 -0.438031 -2.38327 156 135 108
2.07665 0.142132 -2.02624 178 171 156
1.99528 -0.427804 -2.23123 155 143 124
1.9282 0.127966 -2.16888 171 147 109
2.11338 -0.143402 -2.03703 231 231 233
2.07751 0.158428 -2.02496 178 171 156
2.08427 0.192118 -2.02958 213 211 199
1.42918 -0.466045 -2.28621 166 151 132
1.60875 -0.249984 -2.33975 167 151 130
2.21087 -0.0672552 -2.14267 194 188 177
1.5827 0.0511175 -2.19689 218 217 212
1.58872 -0.47493 -2.19478 130 121 106
1.83611 -0.0905557 -2.1409 140 121 100
1.67629 0.441535 -2.25207 208 210 205
2.07117 -0.207511 -2.05796 182 168 149
2.15568 0.368195 -2.10609 192 188 175
2.06548 0.0898595 -2.20579 185 162 132
1.69573 0.535791 -2.24804 185 191 190
2.15971 0.392455 -2.1082 188 184 172
1.94394 -0.493332 -2.15795 169 178 175
1.96106 0.25899 -2.07664 180 163 133
2.16308 0.41694 -2.1093 187 185 174
1.63095 -0.801266 -2.14347 135 137 133
2.08938 0.142319 -2.01781 198 195 185
2.12036 0.2305 -2.04656 224 224 218
1.57595 -0.166616 -2.34674 149 134 115
1.65302 0.380116 -2.18672 212 206 195
1.49049 0.11159 -2.20049 202 199 194
2.16139 -0.248284 -2.09187 190 178 165
2.15619 0.277003 -2.08843 202 198 186
1.90893 -0.850167 -2.00456 134 143 144
1.93636 0.0706558 -2.14477 134 112 76
1.62688 0.0276238 -2.21938 226 227 221
1.93783 0.0592371 -2.13544 143 124 90
1.9121 -0.853052 -2.01342 134 143 144
1.82045 0.265128 -2.20725 211 187 142
2.0355 -0.541342 -2.22603 148 135 117
2.17361 0.345689 -2.10134 194 194 186
1.94461 0.335154 -2.22974 159 126 86
1.50814 -0.717561 -2.22295 168 177 174
1.5018 -0.178473 -2.22934 124 108 87
1.46054 0.247942 -2.28626 123 95 80
1.54702 -0.84701 -2.18587 93 110 119
1.46825 -0.356007 -2.2877 122 105 85
2.18797 0.442294 -2.10552 212 214 208
1.87901 -0.146994 -2.08865 139 126 110
1.50473 -0.29395 -2.26705 95 74 47
2.13283 0.357338 -2.09347 212 216 213
2.0792 -0.251734 -2.0617 199 178 154
1.65792 0.0185744 -2.2437 205 193 174
1.64018 0.600644 -2.24581 151 149 137
1.65082 0.0333168 -2.24461 210 195 175
1.94089 -0.428305 -2.15831 171 147 113
1.93695 0.120351 -2.15949 136 109 68
1.62909 0.131449 -2.25436 226 204 172
1.88721 -0.0155066 -2.15297 156 135 107
2.0079 -0.339356 -2.22541 152 139 122
1.95374 -0.84766 -1.99827 141 151 155
1.97362 0.00269231 -2.07894 119 101 76
1.6165 0.195915 -2.25689 237 235 228
1.81331 0.612425 -2.19458 123 117 103
1.43192 -0.522252 -2.328 127 94 60
1.68753 -0.106841 -2.2037 220 209 196
1.60043 0.265433 -2.26535 214 196 174
1.80342 -0.662863 -2.09588 226 235 234
1.61741 0.34212 -2.19458 193 187 172
1.62438 -0.211002 -2.19619 140 130 114
2.16404 -0.705348 -2.05316 216 206 192
2.1032 -0.720949 -2.07302 151 142 131
1.98833 0.152665 -2.07575 135 115 81
1.61067 -0.445092 -2.18201 186 188 182
1.99771 -0.445263 -2.15367 165 152 129
1.62457 -0.169736 -2.19638 172 148 117
1.61531 0.363795 -2.19048 166 153 131
1.5498 -0.149135 -2.35072 146 129 107
1.99629 -0.379406 -2.23242 150 135 115
2.02888 0.157796 -2.04618 186 172 148
1.62796 -0.157433 -2.20772 112 78 38
1.75881 -0.466506 -2.30288 166 148 125
1.92169 0.603029 -2.16434 148 142 127
1.92838 0.0487397 -2.16665 135 111 74
1.63722 -0.645273 -2.18082 200 191 178
1.61299 0.385763 -2.18679 191 184 169
1.94552 -0.559115 -2.15193 183 166 141
1.93814 -0.0167661 -2.14837 119 91 49
1.62835 -0.00405927 -2.32368 159 140 113
1.66438 -0.267624 -2.32287 177 161 141
1.53955 0.615119 -2.26161 104 100 90
1.76325 0.292589 -2.28309 164 141 107
2.11255 -0.0808438 -2.1912 175 157 133
1.57443 0.0603736 -2.20238 209 207 200
1.58094 -0.471899 -2.19874 97 80 58
1.69285 0.413949 -2.23577 206 201 190
1.61664 0.30158 -2.25382 157 148 137
1.98913 0.0373986 -2.03467 187 178 164
1.70092 -0.0805355 -2.22094 217 199 173
1.47528 0.0951666 -2.20249 140 123 105
1.6778 0.507716 -2.25183 192 200 199
1.69267 -0.0646629 -2.22482 224 213 195
1.82439 -0.471656 -2.12594 206 192 173
1.89472 0.017906 -2.16965 207 193 166
1.67684 -3.46899e-05 -2.24209 202 187 167
1.55208 -0.398091 -2.21344 180 181 174
1.62066 -0.159031 -2.1984 190 175 150
2.19528 0.176714 -2.107 212 213 206
2.21364 -0.515773 -2.10608 225 206 181
1.88905 0.05147 -2.187 189 161 118
1.86846 -0.488634 -2.1848 200 187 163
1.86031 0.173058 -2.18857 198 174 136
2.09556 -0.082993 -2.04384 204 184 161
1.65875 0.0933918 -2.25129 221 209 187
2.06273 -0.578403 -2.13437 144 128 109
1.64639 0.150949 -2.31313 162 151 133
2.19979 -0.101251 -2.10346 171 163 155
2.16259 -0.416576 -2.08103 188 176 159
1.64981 0.153938 -2.25137 219 208 188
1.65562 0.475263 -2.25148 199 201 196
1.97249 -0.0156983 -2.05854 128 115 103
1.9677 0.346229 -2.08907 210 198 177
1.86466 -0.733011 -2.10722 190 184 174
1.62704 0.266024 -2.25951 218 208 189
1.93677 -0.726897 -2.11823 192 189 181
1.94672 -0.0840944 -2.23697 171 153 127
1.62431 0.290189 -2.26019 218 210 194
1.43414 -0.868873 -2.12607 148 185 211
1.48201 -0.190701 -2.26394 95 79 54
2.15749 -0.0545307 -2.08169 213 210 200
2.16513 -0.590246 -2.08019 166 155 138
2.06306 0.0775213 -2.02919 188 185 173
1.50262 -0.399288 -2.25673 64 42 20
1.57668 -0.145443 -2.19827 171 160 147
2.07911 -0.435577 -2.13348 133 120 97
1.6538 -0.198057 -2.1855 173 166 156
1.63941 0.363789 -2.18711 183 173 153
2.02107 -0.443796 -2.1464 165 140 107
1.50089 -0.844294 -2.18264 117 145 165
1.63082 0.411256 -2.18857 209 208 199
1.65128 -0.646023 -2.18439 143 127 107
1.63928 -0.133081 -2.18309 146 123 97
2.15461 -0.00407254 -2.05976 225 233 230
1.98567 -0.478816 -2.23845 142 127 104
2.01494 -0.294337 -2.05239 179 167 146
1.5697 0.610614 -2.25744 110 105 92
1.46788 -0.44368 -2.2623 130 107 79
1.87463 -0.379206 -2.1984 219 191 152
1.97341 -0.765176 -2.04709 177 169 154
1.86919 0.173486 -2.20017 193 158 106
1.71895 -0.0799027 -2.22446 217 199 173
1.73495 -0.624771 -2.15127 155 155 151
2.01459 -0.00309879 -2.06339 133 115 91
1.69824 0.499173 -2.23747 192 201 200
1.70851 -0.0497514 -2.23403 201 176 144
2.01181 -0.258668 -2.06039 168 160 149
1.57568 0.0434982 -2.20315 196 190 180
1.5807 -0.519574 -2.20016 184 170 155
1.99331 -0.276404 -2.06094 196 185 165
1.6901 0.0357634 -2.24324 207 196 175
1.79662 0.176889 -2.1978 232 211 165
1.6246 -0.0308506 -2.20327 226 212 195
2.03932 -0.13878 -2.20803 132 119 102
1.72698 -0.181746 -2.13237 174 161 146
1.68299 0.0934798 -2.24389 212 204 185
1.67294 0.155921 -2.24764 215 203 180
1.65815 0.276548 -2.24997 216 209 193
1.6685 0.178538 -2.24883 218 205 180
1.5876 -0.0255971 -2.17556 213 202 193
1.98709 0.605418 -2.14033 151 147 133
1.57896 -0.3134 -2.20766 172 166 157
2.21863 -0.254051 -2.11586 216 214 207
1.66012 0.220521 -2.24969 220 212 194
1.65205 0.262941 -2.25089 216 208 192
1.64811 0.290385 -2.2539 219 214 201
2.15979 -0.591738 -2.08074 166 155 138
1.80981 0.448014 -2.21169 204 206 200
1.64465 0.314328 -2.25603 217 210 198
1.8639 -0.190924 -2.07622 174 164 151
1.91604 -0.460446 -2.2584 134 123 107
1.65911 0.347124 -2.19228 173 164 146
1.59324 0.207146 -2.21437 238 241 237
1.99379 -0.826043 -2.04627 96 101 101
1.89428 0.48242 -2.18996 203 207 203
1.6642 0.0268757 -2.23773 221 209 187
1.60668 0.505721 -2.27588 184 189 186
1.56638 -0.438512 -2.20349 128 118 102
1.55857 0.0690037 -2.20054 198 198 190
