ply
format ascii 1.0
comment Created by Open3D
element vertex 1213
property double x
property double y
property double z
property uchar red
property uchar green
property uchar blue
end_header
0.291941 0.198885 -2.24886 205 202 191
0.274838 0.167764 -2.25064 193 187 173
0.257839 0.137552 -2.25243 198 194 180
0.239093 0.109018 -2.25462 206 203 192
0.218623 0.0823545 -2.25719 228 225 216
0.195075 0.0584308 -2.26042 223 220 209
0.167574 0.0380686 -2.26452 213 208 193
0.130708 0.0247871 -2.27061 218 214 199
0.082329 0.0209748 -2.27916 226 220 202
0.0293508 0.0235606 -2.2888 232 236 228
-0.0349081 0.0376627 -2.30096 231 236 228
-0.101798 0.0584357 -2.31387 243 244 235
-0.12313 0.0497221 -2.31735 202 202 192
-0.129656 0.0306846 -2.31772 187 181 163
-0.129516 0.00638282 -2.31668 175 162 135
-0.121474 -0.0250744 -2.31392 157 138 106
0.464124 0.597011 -2.27488 180 168 145
0.431183 0.556415 -2.27815 172 158 135
0.418976 0.517807 -2.27847 150 137 115
0.420455 0.479332 -2.27679 156 146 127
0.413163 0.441008 -2.2764 206 205 197
0.3943 0.403989 -2.27775 223 224 217
0.377474 0.367696 -2.27883 202 200 188
0.365537 0.33146 -2.2792 202 200 191
0.346974 0.297073 -2.28061 187 183 171
0.33423 0.262327 -2.28115 166 157 138
0.324395 0.2274 -2.28126 146 134 114
0.307997 0.194875 -2.28242 173 164 146
0.289816 0.163836 -2.2839 177 168 150
0.274554 0.132714 -2.28495 172 162 142
0.255651 0.103912 -2.28661 173 163 144
0.235937 0.0765669 -2.28845 174 164 146
0.212185 0.0523518 -2.291 173 163 144
0.185827 0.0309815 -2.29404 184 174 154
0.156897 0.0127484 -2.29757 190 181 162
0.108971 0.00779969 -2.30439 189 178 159
-0.0218148 0.004125 -2.32334 226 226 213
-0.0359704 -0.0129949 -2.32476 202 195 177
-0.035702 -0.0406621 -2.32367 167 148 113
0.439951 0.516006 -2.31456 171 157 134
0.426716 0.47757 -2.31473 174 159 133
0.419411 0.439348 -2.31425 151 136 112
0.403365 0.402168 -2.31479 185 176 158
0.388377 0.365641 -2.31523 178 169 150
0.380236 0.328716 -2.31489 139 126 103
0.364423 0.293583 -2.31547 144 129 105
0.350616 0.258782 -2.31583 139 124 100
0.342616 0.223092 -2.31552 134 118 92
0.329886 0.189106 -2.31579 143 130 107
0.312484 0.157314 -2.31666 163 150 129
0.297074 0.125723 -2.31732 161 148 128
0.283634 0.0941389 -2.31775 136 123 102
0.265584 0.0653 -2.3188 137 125 104
0.245779 0.038339 -2.32011 142 125 99
0.219593 0.0158713 -2.32229 149 134 111
0.439912 0.397666 -2.34956 174 161 138
0.417891 0.361145 -2.3502 147 131 104
0.410615 0.323382 -2.34963 124 106 78
0.402391 0.286008 -2.34915 120 103 76
0.389362 0.250022 -2.3491 125 108 82
0.383142 0.212814 -2.34846 124 108 81
0.374058 0.176608 -2.34808 131 114 86
0.354499 0.144281 -2.34866 137 121 95
0.342674 0.110149 -2.34856 135 119 92
-0.0427931 -0.140211 -1.67639 237 236 225
-0.0629641 -0.155904 -1.68493 240 238 230
-0.0794966 -0.173607 -1.69135 234 231 216
-0.0851896 -0.200649 -1.69109 209 203 186
-0.0128025 -0.132083 -1.692 233 233 222
-0.0358391 -0.147098 -1.70142 224 224 215
-0.0525859 -0.166063 -1.70737 217 213 198
-0.066601 -0.186514 -1.71183 211 206 188
-0.0770804 -0.209558 -1.7143 198 190 170
0.0157195 -0.120819 -1.71049 225 227 218
-0.0110785 -0.13459 -1.72107 220 221 211
-0.0315062 -0.151834 -1.72841 214 212 199
-0.048277 -0.170965 -1.73391 212 207 190
-0.061458 -0.19237 -1.73756 212 206 188
-0.0706894 -0.216846 -1.73909 191 182 163
0.0445166 -0.10786 -1.7308 231 235 229
0.0121533 -0.119322 -1.74313 231 233 225
-0.00979507 -0.136756 -1.75052 218 218 209
-0.0276141 -0.156217 -1.75598 210 207 192
-0.0426766 -0.177008 -1.76016 203 197 181
-0.0558919 -0.198631 -1.76349 186 179 160
-0.0634529 -0.224967 -1.76398 165 151 127
0.038259 -0.104616 -1.7654 229 232 227
0.0121148 -0.120455 -1.77394 222 223 215
-0.00632507 -0.140654 -1.77909 215 211 196
-0.0224223 -0.161695 -1.78327 208 204 189
-0.0379475 -0.182307 -1.78727 189 181 161
-0.051621 -0.203722 -1.79048 166 156 135
-0.0592112 -0.230233 -1.79087 182 174 157
0.0686219 -0.091081 -1.78764 235 237 231
0.0359955 -0.104184 -1.79793 226 229 221
0.0151576 -0.123898 -1.80349 217 216 204
-0.00285959 -0.14456 -1.80796 209 207 192
-0.0189757 -0.165735 -1.81173 203 197 180
-0.0340881 -0.18686 -1.81515 182 174 155
-0.0464973 -0.209611 -1.81747 162 153 134
0.0645515 -0.089544 -1.8217 231 231 222
0.0390479 -0.10752 -1.82832 223 223 213
0.0190764 -0.128008 -1.83296 218 217 205
0.000601351 -0.148473 -1.83713 212 208 193
-0.0150992 -0.170145 -1.84031 194 188 173
-0.0293706 -0.192179 -1.84301 170 165 149
-0.0405227 -0.216301 -1.84454 160 156 143
0.100996 -0.0780408 -1.84471 224 224 214
0.0667201 -0.0921795 -1.85339 224 224 213
0.0434238 -0.111806 -1.85852 212 210 198
0.0229902 -0.132127 -1.86276 215 213 202
0.00536859 -0.153434 -1.86613 204 201 188
-0.0107937 -0.174926 -1.86907 188 183 169
-0.0246592 -0.197508 -1.87127 165 158 143
0.13329 -0.0616727 -1.8714 231 231 223
0.0942041 -0.0749553 -1.88032 229 229 221
0.0671052 -0.0936244 -1.88582 221 220 209
0.0464673 -0.115157 -1.88948 218 215 202
0.0264593 -0.135924 -1.89303 217 216 207
0.00925636 -0.157711 -1.8958 200 197 184
-0.00605977 -0.180081 -1.89805 164 159 144
-0.0190916 -0.203607 -1.89964 145 138 122
0.63969 0.281673 -1.81758 171 165 153
0.628342 0.233491 -1.81686 158 149 135
0.61607 0.185713 -1.81637 160 146 126
0.614308 0.135509 -1.8134 146 130 106
0.121042 -0.055627 -1.90916 237 239 232
0.0914481 -0.0744072 -1.91442 231 231 222
0.0688239 -0.095969 -1.91795 224 222 211
0.0481806 -0.117567 -1.92105 224 224 216
0.029924 -0.139728 -1.92359 210 207 195
0.0127026 -0.161648 -1.92591 172 166 150
-0.00176561 -0.184881 -1.92755 137 130 114
-0.0143928 -0.208957 -1.92872 125 116 98
-0.0351092 -0.259587 -1.92989 221 214 197
0.6627 0.37725 -1.8685 172 159 138
0.652253 0.328534 -1.86748 164 154 139
0.622477 0.282911 -1.87026 148 138 125
0.634314 0.230949 -1.86487 144 129 105
0.629656 0.181248 -1.86271 154 139 113
0.629707 0.130065 -1.85957 133 117 90
0.635329 0.0766379 -1.85526 114 100 75
0.109707 -0.0500944 -1.94587 234 235 227
0.0882472 -0.0735713 -1.94845 228 227 216
0.0687616 -0.0971187 -1.95066 228 228 218
0.0503331 -0.120298 -1.95269 210 209 199
0.0338231 -0.143871 -1.95434 183 178 162
0.0178891 -0.166986 -1.95591 155 148 132
0.70782 0.422924 -1.9137 228 226 220
0.658019 0.376301 -1.9188 116 104 86
0.633006 0.329468 -1.92006 141 130 111
0.583038 0.287605 -1.92545 227 222 214
0.575858 0.24054 -1.92395 123 107 88
0.587785 0.189141 -1.91927 139 123 96
0.58142 0.141056 -1.91758 159 144 118
0.588259 0.0889512 -1.91364 104 88 64
0.615579 0.0289889 -1.90611 108 93 68
0.600466 -0.0180124 -1.90584 107 91 68
0.539965 -0.0462009 -1.91361 142 133 120
0.538196 -0.0964169 -1.9111 70 57 42
0.132189 -0.0271376 -1.97755 233 234 227
0.108284 -0.0504367 -1.97994 228 228 219
0.0881795 -0.0747188 -1.9817 232 231 222
0.0713649 -0.100071 -1.98289 212 211 203
0.0533658 -0.123667 -1.98436 190 186 174
0.665778 0.521279 -1.97457 122 106 80
0.667286 0.4728 -1.97198 107 90 67
0.655897 0.424367 -1.97096 160 148 128
0.118081 -0.0204638 -2.01409 238 235 217
0.0933701 -0.0427255 -2.01598 234 233 220
0.0688947 -0.0636329 -2.01791 232 231 220
0.042434 -0.0816828 -2.02023 224 224 214
0.645597 0.61385 -2.0294 176 168 155
0.621421 0.566056 -2.02943 132 116 91
0.588478 0.5192 -2.03028 125 109 84
0.585469 0.473304 -2.02853 100 86 63
0.61189 0.425467 -2.0241 172 163 145
0.561692 0.382097 -2.02663 178 171 158
0.376529 0.275761 -2.03831 196 197 189
0.356167 0.2385 -2.03847 212 214 208
0.323621 0.205359 -2.03989 222 224 216
0.29704 0.172281 -2.04078 192 191 184
0.275384 0.138998 -2.04123 166 164 155
0.246447 0.1095 -2.04249 192 194 188
0.157588 0.032055 -2.04694 205 207 200
0.132479 0.00745729 -2.04807 203 203 194
0.102179 -0.0127538 -2.04986 216 215 209
0.0757762 -0.0333742 -2.05129 214 214 205
0.0214893 -0.103147 -2.05302 190 188 177
0.469067 0.759812 -2.09256 135 116 86
0.461001 0.719077 -2.09145 120 94 61
0.618686 0.656103 -2.08032 204 201 196
0.581558 0.607939 -2.08053 192 184 164
0.562739 0.5624 -2.07983 126 110 83
0.550004 0.517629 -2.07883 127 113 88
0.543254 0.473044 -2.0775 112 99 77
0.540422 0.428176 -2.07594 104 94 73
0.37227 0.316643 -2.08098 226 229 226
0.355738 0.278562 -2.08044 212 215 211
0.331683 0.242854 -2.08041 184 182 174
0.303086 0.209549 -2.08072 216 217 211
0.278519 0.176605 -2.08082 198 199 193
0.259791 0.143009 -2.08057 188 188 182
0.231888 0.113703 -2.081 201 203 198
0.201464 0.0870106 -2.08166 218 221 217
0.173172 0.0611763 -2.08224 219 223 218
0.145149 0.0368899 -2.08286 203 204 197
0.118305 0.0136772 -2.08346 200 201 195
0.0894579 -0.00678676 -2.08428 198 196 188
0.0622442 -0.0264139 -2.08503 193 190 182
0.480751 0.761173 -2.13353 172 162 142
0.444029 0.715291 -2.13286 136 118 93
0.436064 0.675138 -2.13173 113 96 71
0.54068 0.603822 -2.12708 136 122 106
0.552051 0.560814 -2.12543 132 118 97
0.530438 0.51629 -2.12447 114 98 69
0.518856 0.472434 -2.12331 108 95 71
0.504373 0.429003 -2.12222 109 96 75
0.377606 0.355632 -2.12267 219 219 215
0.357168 0.317879 -2.1219 215 216 211
0.344563 0.279552 -2.12093 200 200 192
0.317717 0.244865 -2.12041 215 216 210
0.293003 0.211034 -2.11986 215 216 210
0.270387 0.177866 -2.11929 183 181 173
0.249836 0.145166 -2.11868 188 187 180
0.222001 0.116202 -2.11836 204 204 199
0.19072 0.0902322 -2.11822 226 230 227
0.163422 0.0643626 -2.11799 224 226 222
0.136382 0.0399763 -2.1178 208 210 204
0.108691 0.0175481 -2.11769 201 201 195
0.0830749 -0.00434649 -2.11755 194 193 185
0.479121 0.720161 -2.17401 155 137 111
0.441527 0.674908 -2.1724 144 128 103
0.427485 0.633998 -2.17116 122 103 76
0.428577 0.594627 -2.17012 115 100 73
0.525778 0.515102 -2.16903 100 83 57
0.51126 0.471452 -2.16771 112 98 72
0.416349 0.432887 -2.16566 197 198 192
0.388786 0.394026 -2.16433 214 214 207
0.366308 0.355914 -2.16307 225 227 221
0.349798 0.317915 -2.16188 210 210 201
0.33244 0.280746 -2.1607 207 207 200
0.311393 0.245158 -2.15952 229 232 228
0.287669 0.211286 -2.15836 213 214 206
0.266032 0.178011 -2.15724 183 180 168
0.242701 0.146397 -2.15614 203 204 197
0.215848 0.117331 -2.15508 216 217 211
0.186465 0.0908197 -2.15405 228 231 227
0.159201 0.0650986 -2.15307 223 224 218
0.134024 0.0399739 -2.15213 214 214 208
0.109081 0.0162034 -2.15123 211 210 203
0.0663145 0.00394607 -2.15044 204 204 197
0.439973 0.634298 -2.2123 177 167 147
0.43196 0.593856 -2.21111 129 113 87
0.427948 0.553637 -2.21009 115 101 78
0.407863 0.432275 -2.20666 166 160 148
0.381331 0.3936 -2.20469 228 230 224
0.36084 0.355484 -2.20299 216 217 210
0.344363 0.317655 -2.20147 209 208 198
0.327997 0.28047 -2.19998 214 215 207
0.307932 0.244805 -2.19835 217 218 209
0.28613 0.210544 -2.19668 210 211 203
0.265448 0.177031 -2.19507 189 188 178
0.243062 0.145117 -2.19342 213 214 206
0.216214 0.116037 -2.19163 224 226 219
0.187763 0.0891351 -2.18982 228 229 222
0.1605 0.0633691 -2.18809 222 223 216
0.133494 0.0390863 -2.1864 221 220 212
0.103114 0.0181929 -2.18463 218 215 203
-0.474995 0.20808 -2.1633 214 220 218
-0.485615 0.202553 -2.16272 218 222 221
-0.494209 0.195857 -2.16221 196 200 197
-0.501238 0.188191 -2.16174 196 197 194
0.447371 0.593928 -2.25329 193 183 163
0.440276 0.553074 -2.25213 134 117 90
0.436157 0.512239 -2.25119 114 96 69
0.432989 0.471185 -2.25032 120 107 85
0.409189 0.431095 -2.24788 207 206 195
0.382656 0.392373 -2.24525 218 218 210
0.360223 0.354449 -2.24295 210 209 200
0.343751 0.316628 -2.2411 209 208 199
0.326432 0.279639 -2.23921 200 198 187
0.310189 0.24314 -2.2374 202 200 190
0.290271 0.208292 -2.23534 201 198 186
0.268628 0.174916 -2.23317 199 197 186
0.247164 0.142571 -2.23103 210 208 199
0.223089 0.112303 -2.22872 221 222 214
0.194605 0.0851633 -2.22611 229 229 221
0.165471 0.0599845 -2.22349 227 227 221
0.138444 0.0355278 -2.22104 230 232 224
0.0912539 0.0232956 -2.21723 229 231 224
-0.446868 0.215463 -2.1788 231 237 237
-0.466862 0.215819 -2.17727 236 242 240
-0.479944 0.211783 -2.1762 218 222 221
-0.4901 0.206058 -2.17533 218 222 221
-0.49781 0.198729 -2.17463 234 239 240
-0.504814 0.191197 -2.17397 196 197 194
0.459569 0.552754 -2.29579 211 198 178
0.45038 0.511244 -2.29438 168 156 134
0.430374 0.470158 -2.29179 164 152 129
0.407574 0.430088 -2.28891 204 200 187
0.383005 0.391232 -2.28584 208 207 197
0.365418 0.352673 -2.28354 164 157 140
0.34699 0.314978 -2.28115 176 169 153
0.328698 0.278058 -2.27879 183 178 165
0.315299 0.240809 -2.27696 169 162 146
0.299139 0.20477 -2.27484 167 157 138
0.276507 0.171369 -2.27204 187 179 162
0.255936 0.13843 -2.26946 189 182 165
0.229956 0.108555 -2.26632 192 185 168
0.202363 0.0807963 -2.26303 202 195 180
0.173192 0.0553486 -2.25958 226 223 213
0.145213 0.0310671 -2.25627 226 226 215
0.0326935 0.0530486 -2.2441 245 250 244
-0.423138 0.213312 -2.1955 228 233 233
-0.448395 0.216105 -2.19275 231 237 237
-0.468372 0.216527 -2.19056 235 241 241
-0.482732 0.213654 -2.18895 228 233 232
-0.49201 0.207265 -2.18787 228 233 232
-0.499493 0.199807 -2.18698 238 242 239
-0.506695 0.192543 -2.18612 213 214 209
0.446475 0.46861 -2.33582 143 132 113
0.423588 0.428005 -2.33239 160 143 116
0.397959 0.388709 -2.32857 176 162 137
0.378351 0.349891 -2.32562 160 145 121
0.361777 0.311442 -2.32311 133 118 93
0.342444 0.274204 -2.3202 148 134 112
0.329915 0.236257 -2.31827 134 119 95
0.320292 0.197937 -2.31675 143 130 107
0.29848 0.163523 -2.3135 160 148 127
0.276847 0.130141 -2.31028 163 150 128
0.252606 0.0988415 -2.30669 164 153 135
0.218422 0.0729729 -2.3017 173 165 147
0.188245 0.0473805 -2.29729 187 179 162
0.153798 0.0256991 -2.29228 191 181 161
-0.388991 0.205707 -2.21528 233 238 239
-0.421172 0.211325 -2.2107 233 237 235
-0.447085 0.214564 -2.207 236 240 236
-0.467277 0.215123 -2.20412 238 242 237
-0.482501 0.212951 -2.20193 238 243 240
-0.492419 0.20713 -2.20049 238 243 240
-0.500323 0.200086 -2.19933 235 238 233
-0.507729 0.19306 -2.19825 213 214 209
0.409656 0.344706 -2.37187 125 106 77
-0.289335 0.179518 -2.24901 229 233 233
-0.34514 0.194308 -2.23915 233 238 239
-0.384379 0.201942 -2.23221 233 238 239
-0.416574 0.207411 -2.22653 232 236 233
-0.442722 0.210664 -2.22191 232 236 228
-0.463801 0.211777 -2.2182 238 242 237
-0.47904 0.20948 -2.21552 238 242 237
-0.490903 0.205262 -2.21343 238 243 240
-0.50009 0.199363 -2.21183 235 238 233
-0.507495 0.192326 -2.21054 201 201 192
-0.282482 0.174651 -2.27006 234 238 239
-0.377124 0.196338 -2.25007 228 232 230
-0.410007 0.202043 -2.24314 233 238 234
-0.437057 0.205743 -2.23745 231 235 229
-0.458812 0.207186 -2.23288 232 236 228
-0.475154 0.205632 -2.22947 229 233 225
-0.488534 0.20262 -2.22669 230 234 228
-0.498795 0.197635 -2.22458 223 228 226
-0.50684 0.191174 -2.22295 200 199 192
-0.323478 0.178937 -2.27991 238 243 240
-0.399721 0.19393 -2.26121 232 235 232
-0.428567 0.198617 -2.25415 234 238 236
-0.452531 0.201525 -2.24829 234 238 230
-0.470627 0.201221 -2.24391 234 237 229
-0.485313 0.199201 -2.24037 230 234 228
-0.496441 0.194899 -2.23773 223 228 226
-0.505765 0.189602 -2.23554 200 199 192
-0.387255 0.184187 -2.28069 221 224 217
-0.41878 0.19046 -2.27187 229 232 228
-0.444527 0.194434 -2.2647 230 234 224
-0.464386 0.195321 -2.2592 225 228 222
-0.479961 0.193843 -2.25493 204 201 192
-0.492393 0.190548 -2.25157 204 201 192
-0.50174 0.185097 -2.24909 204 201 192
-0.431992 0.183605 -2.28322 223 226 218
-0.454071 0.185886 -2.27634 202 197 185
-0.472268 0.186348 -2.2707 202 197 185
-0.48517 0.183167 -2.26679 166 159 143
-0.493509 0.176393 -2.26438 202 197 183
-0.462452 0.1769 -2.28786 205 203 188
-0.474778 0.172747 -2.28377 193 190 175
-0.0198876 -0.119653 -1.68591 238 234 212
-0.044902 -0.129098 -1.69079 213 210 197
-0.0599447 -0.14553 -1.69275 240 238 230
0.00161201 -0.110607 -1.70812 225 227 218
-0.0216258 -0.123014 -1.7117 228 228 218
-0.0404907 -0.137572 -1.71421 224 222 214
-0.054125 -0.155523 -1.71538 219 216 205
0.0267988 -0.10276 -1.73111 229 232 225
-0.000740767 -0.113526 -1.73491 226 227 218
-0.0210897 -0.128234 -1.73717 249 249 239
-0.037122 -0.145292 -1.73849 214 212 199
-0.0489024 -0.165135 -1.73887 212 207 190
0.0556583 -0.0957355 -1.75528 226 231 225
0.0196225 -0.102223 -1.75982 236 233 217
-0.00127906 -0.117869 -1.76153 224 223 213
-0.0192453 -0.134578 -1.76274 217 215 201
-0.0338616 -0.153027 -1.76335 210 206 191
-0.0451788 -0.173557 -1.76334 203 197 181
0.0496849 -0.0962605 -1.78472 238 241 236
0.0212499 -0.108127 -1.78696 226 229 221
0.0027191 -0.125775 -1.7877 216 216 206
-0.0152049 -0.142793 -1.78841 210 206 191
-0.0298002 -0.161555 -1.78864 193 188 171
-0.0415699 -0.181997 -1.78843 179 173 155
0.647694 0.209527 -1.78776 146 134 117
0.632762 0.164162 -1.78582 116 98 73
0.0819862 -0.0897314 -1.81162 230 230 221
0.0478709 -0.0996959 -1.81361 232 234 228
0.0264595 -0.116762 -1.81412 225 226 218
0.00750995 -0.134412 -1.81439 217 216 204
-0.0112852 -0.151027 -1.81473 209 207 192
-0.0272149 -0.168937 -1.81475 191 187 173
-0.0389743 -0.189646 -1.81425 182 174 155
0.66193 0.301353 -1.83957 146 135 117
0.632085 0.257635 -1.83819 171 163 152
0.618215 0.212277 -1.83594 131 118 99
0.60931 0.166231 -1.83342 154 142 123
0.60335 0.119535 -1.83071 128 111 88
0.114201 -0.0809424 -1.84096 213 210 197
0.077185 -0.0912279 -1.84204 224 224 213
0.0505934 -0.106378 -1.84233 212 210 198
0.0292501 -0.123718 -1.84223 214 210 195
0.00944626 -0.140931 -1.84206 209 206 192
-0.0097422 -0.157418 -1.84191 208 206 193
-0.0260785 -0.17517 -1.84155 189 186 173
-0.0364813 -0.19731 -1.84062 184 180 171
0.678227 0.394192 -1.89199 174 157 133
0.658175 0.347659 -1.88955 142 129 106
0.641214 0.301571 -1.88708 142 133 120
0.625332 0.255965 -1.88463 165 152 130
0.619322 0.208977 -1.88194 142 124 94
0.620117 0.160323 -1.87905 139 123 97
0.607272 0.114807 -1.87655 118 101 72
0.608945 0.0652778 -1.87359 119 105 80
0.616286 0.0132135 -1.8704 118 102 76
0.601533 -0.031587 -1.86797 114 99 75
0.15003 -0.072101 -1.87256 216 214 204
0.105499 -0.0801043 -1.87277 211 206 188
0.074661 -0.0942675 -1.87241 225 224 215
0.05093 -0.111455 -1.87176 213 210 198
0.0292138 -0.128647 -1.87108 215 213 202
0.00948364 -0.146038 -1.87035 204 201 188
-0.00918609 -0.163077 -1.86963 188 183 169
-0.0250266 -0.181415 -1.86879 165 158 143
-0.033204 -0.205801 -1.86748 156 149 133
0.69837 0.439857 -1.94262 218 213 203
0.664343 0.393158 -1.93951 131 117 96
0.651302 0.346096 -1.93673 125 113 92
0.595024 0.210789 -1.92844 82 60 32
0.591011 0.163793 -1.92581 89 69 42
0.581192 0.118175 -1.92317 101 84 57
0.569486 0.073339 -1.92054 111 95 70
0.543531 0.0337251 -1.91795 128 114 93
0.531994 -0.00997955 -1.91538 125 111 90
0.5139 -0.0506226 -1.91287 147 138 123
0.488414 -0.0871019 -1.91046 158 151 140
0.174673 -0.0545031 -1.90703 229 229 221
0.134196 -0.0672483 -1.90567 224 222 212
0.100034 -0.0813085 -1.90434 200 196 182
0.0739143 -0.0985485 -1.90296 224 222 211
0.0507358 -0.116219 -1.90162 224 223 214
0.0295553 -0.133928 -1.9003 216 215 206
0.00944859 -0.151157 -1.89903 200 197 184
-0.00870836 -0.168747 -1.89777 179 175 163
-0.0231735 -0.188452 -1.89646 167 162 148
0.684929 0.582506 -1.99783 133 121 91
0.664802 0.534446 -1.99446 117 98 73
0.674663 0.487096 -1.9926 118 100 76
0.66851 0.439233 -1.98993 133 117 93
0.631791 0.393445 -1.98586 133 117 89
0.568987 0.213027 -1.97384 86 66 41
0.492438 0.000592232 -1.95955 175 169 156
0.4877 -0.0444633 -1.95709 170 165 155
0.466156 -0.0820078 -1.95417 162 155 142
0.160978 -0.0513095 -1.94073 223 223 215
0.128078 -0.0681902 -1.93828 223 223 213
0.0986518 -0.0851507 -1.936 215 212 198
0.0735531 -0.103149 -1.93388 224 224 215
0.0495704 -0.120343 -1.93185 214 214 204
0.0280303 -0.137856 -1.92993 210 207 195
0.00889665 -0.155929 -1.92809 187 183 169
-0.00786692 -0.174804 -1.92634 164 160 147
-0.0200976 -0.196674 -1.92465 164 159 147
0.658056 0.626541 -2.04585 203 197 187
0.628076 0.578288 -2.04124 126 112 86
0.600306 0.531575 -2.03688 118 102 77
0.590548 0.486124 -2.03405 124 109 86
0.622167 0.439287 -2.03454 130 113 85
0.601487 0.393636 -2.03081 135 117 86
0.514651 0.355841 -2.02202 218 219 212
0.477109 0.316619 -2.01719 215 217 211
0.188145 -0.033701 -1.9779 233 235 230
0.153764 -0.0517572 -1.97428 231 231 223
0.124682 -0.0707958 -1.97105 209 206 194
0.0967577 -0.0887087 -1.96796 226 226 215
0.0713242 -0.106522 -1.96509 219 219 211
0.0487911 -0.124803 -1.96243 200 197 186
0.027783 -0.142818 -1.9599 183 178 162
0.00916147 -0.161427 -1.95755 155 148 132
-0.00667065 -0.181248 -1.95537 119 110 90
0.491189 0.772492 -2.08015 240 237 228
0.58412 0.663224 -2.08651 155 142 124
0.57048 0.618027 -2.08314 200 193 173
0.559887 0.573457 -2.08015 126 110 83
0.551308 0.529199 -2.07741 122 106 81
0.549631 0.485026 -2.07546 120 106 82
0.563563 0.439913 -2.07528 83 68 45
0.542239 0.395994 -2.07108 164 159 146
0.474557 0.357995 -2.06178 213 212 205
0.437367 0.319869 -2.05599 217 217 211
0.408159 0.282469 -2.05115 199 197 188
0.383 0.245819 -2.0468 158 152 139
0.354236 0.211391 -2.04212 203 204 197
0.325704 0.178515 -2.03753 180 178 170
0.303983 0.14511 -2.03371 163 160 149
0.280556 0.113463 -2.02976 164 162 153
0.178607 0.00419843 -2.01369 210 213 209
0.162527 -0.0243902 -2.0107 231 233 228
0.144749 -0.0511566 -2.0076 220 219 209
0.120348 -0.0728515 -2.00393 211 207 193
0.0943612 -0.0919811 -2.00018 219 219 211
0.047502 -0.128947 -1.99332 190 186 174
0.476465 0.769781 -2.11982 185 179 163
0.450254 0.725298 -2.11438 137 121 94
0.444265 0.685195 -2.1121 126 111 88
0.551297 0.615766 -2.1256 136 122 106
0.536833 0.571325 -2.12191 104 86 57
0.527356 0.527528 -2.11898 122 105 75
0.521818 0.483896 -2.11664 119 103 76
0.519187 0.440081 -2.11473 109 96 73
0.492327 0.397802 -2.10927 158 151 138
0.437749 0.359898 -2.09984 222 222 218
0.404728 0.322226 -2.09363 225 227 223
0.377697 0.28535 -2.08833 215 216 213
0.35562 0.248891 -2.08379 199 199 191
0.327102 0.215165 -2.07838 207 207 198
0.301632 0.182192 -2.07345 203 203 196
0.283835 0.148193 -2.06962 178 176 168
0.261519 0.116685 -2.06521 182 181 174
0.23568 0.0877917 -2.06037 201 202 197
0.206376 0.0618995 -2.05511 208 210 205
0.179152 0.0368332 -2.0502 205 206 200
0.154888 0.0119394 -2.04573 196 197 190
0.131732 -0.0120891 -2.04145 217 218 210
0.10787 -0.0343008 -2.03713 223 222 213
0.0882381 -0.0576596 -2.03341 232 231 218
0.0656494 -0.0778911 -2.02935 232 232 224
0.0450249 -0.0980722 -2.02558 219 218 209
0.455773 0.726561 -2.15672 187 179 162
0.432799 0.683429 -2.15125 155 143 123
0.424848 0.643213 -2.14861 116 98 72
0.529654 0.570126 -2.16559 77 58 34
0.521167 0.526323 -2.16274 78 61 33
0.513671 0.482642 -2.16008 117 103 76
0.504251 0.439106 -2.15707 121 110 91
0.439087 0.39998 -2.14401 169 164 152
0.401302 0.361857 -2.13598 218 219 214
0.374307 0.324356 -2.12994 221 222 218
0.354154 0.287089 -2.12515 205 205 196
0.331319 0.251397 -2.11992 224 227 222
0.305845 0.217571 -2.11427 210 210 201
0.284305 0.184037 -2.10934 208 208 201
0.271279 0.14891 -2.10592 186 186 178
0.248178 0.117945 -2.10078 211 212 206
0.222505 0.0892977 -2.09525 213 215 211
0.192478 0.0640517 -2.08901 220 223 219
0.16362 0.0401225 -2.08303 202 202 195
0.13682 0.0169528 -2.07745 201 201 195
0.111601 -0.00540507 -2.07218 204 204 197
0.0865985 -0.0263087 -2.067 191 188 177
0.0631471 -0.0465944 -2.06211 210 209 202
0.0416671 -0.0667024 -2.05759 189 185 175
0.0282865 -0.0911807 -2.05443 173 168 156
0.463924 0.688231 -2.19954 103 83 49
0.434137 0.644111 -2.192 164 152 131
0.421237 0.603038 -2.18819 123 106 79
0.424977 0.563362 -2.18803 122 108 81
0.495871 0.481478 -2.20142 175 165 146
0.448102 0.43992 -2.19003 173 170 158
0.406481 0.4007 -2.18004 184 181 173
0.375676 0.362706 -2.17242 223 224 220
0.354581 0.325009 -2.16692 214 215 209
0.338345 0.287494 -2.16248 207 207 199
0.31379 0.252516 -2.15629 229 232 228
0.290359 0.218595 -2.15037 213 214 206
0.272671 0.184296 -2.14569 204 203 195
0.261561 0.14874 -2.14241 205 204 195
0.238588 0.117888 -2.13667 232 231 222
0.210326 0.0904521 -2.12986 232 236 233
0.179584 0.0658219 -2.12259 221 224 219
0.149111 0.0430013 -2.11541 215 216 210
0.1225 0.0201446 -2.10908 208 209 203
0.0956739 -0.000914037 -2.10274 218 217 211
0.0704163 -0.0211784 -2.09676 190 185 175
0.0480302 -0.0416313 -2.0914 199 197 190
0.459856 0.647006 -2.24071 132 120 99
0.43807 0.604057 -2.23439 200 192 177
0.430003 0.562908 -2.23157 136 121 97
0.424847 0.521955 -2.22948 117 100 72
0.464764 0.480471 -2.23874 150 140 121
0.433594 0.439011 -2.23009 185 180 167
0.395079 0.399828 -2.21963 228 230 224
0.364449 0.361987 -2.21118 229 231 225
0.34441 0.324295 -2.20541 214 214 206
0.32732 0.287059 -2.20039 203 201 191
0.306625 0.251413 -2.19449 217 218 209
0.287011 0.216565 -2.18887 210 211 203
0.269382 0.182149 -2.18377 192 190 178
0.254626 0.147672 -2.17939 208 208 200
0.230857 0.117172 -2.17281 209 207 196
0.201844 0.0901562 -2.16498 235 234 225
0.170379 0.0660143 -2.15659 222 224 218
0.139194 0.0437466 -2.1483 214 214 208
0.110517 0.0221974 -2.14066 210 210 203
0.0829834 0.00186616 -2.13333 183 182 174
0.0579006 -0.0181345 -2.12663 198 197 190
0.0321628 -0.0360893 -2.1198 189 188 183
0.448352 0.563183 -2.27982 214 206 191
0.444018 0.521378 -2.27799 148 134 110
0.441571 0.479422 -2.27671 189 178 159
0.429602 0.43764 -2.27268 202 200 189
0.358903 0.360628 -2.2513 209 207 196
0.34268 0.322326 -2.2461 211 209 199
0.325634 0.284906 -2.24068 196 193 181
0.309627 0.248058 -2.23557 202 200 190
0.290969 0.212631 -2.22971 201 198 186
0.274275 0.177571 -2.22443 199 197 186
0.253149 0.144794 -2.2179 207 207 198
0.227662 0.114787 -2.21016 226 229 223
0.197887 0.0880323 -2.20124 230 231 224
0.165687 0.064219 -2.19165 229 230 221
0.132886 0.0427756 -2.18193 218 219 212
0.101712 0.0226407 -2.1727 219 218 209
0.0703833 0.00466025 -2.16345 210 210 204
0.455236 0.520584 -2.32585 175 163 144
0.441302 0.47812 -2.32098 143 132 113
0.425562 0.436261 -2.31553 166 152 127
0.398667 0.395965 -2.3065 193 185 166
0.375716 0.356657 -2.29875 164 157 140
0.352939 0.318511 -2.29106 176 169 153
0.335874 0.280489 -2.28522 170 161 142
0.324433 0.242008 -2.28119 152 142 123
0.305743 0.205819 -2.27484 170 161 144
0.283555 0.171616 -2.26738 189 181 165
0.259733 0.139182 -2.25941 198 194 180
0.234306 0.10871 -2.25093 210 208 197
0.199257 0.0836994 -2.2394 231 232 226
0.165416 0.0604222 -2.22827 227 227 221
0.131884 0.0392133 -2.21725 224 226 219
0.0964618 0.0212329 -2.20566 218 218 209
0.406801 0.393465 -2.35324 160 144 117
0.390363 0.352856 -2.3472 143 125 97
0.376796 0.312532 -2.3422 126 106 76
0.358722 0.273597 -2.33558 135 120 95
0.346246 0.234262 -2.33097 122 105 79
0.333838 0.195379 -2.32639 131 115 90
0.30435 0.162102 -2.31569 160 148 127
0.283192 0.127774 -2.30798 161 148 128
0.251484 0.0985748 -2.2965 173 162 144
0.212951 0.0741953 -2.28258 180 171 153
0.17566 0.0518065 -2.26912 214 210 196
0.137837 0.0321773 -2.25547 227 226 215
0.0776595 0.0270326 -2.23384 241 244 236
0.251063 0.0543134 -2.33705 141 127 103
0.147982 0.0229467 -2.29632 191 181 161
0.0590322 0.0328592 -2.2611 240 244 236
0.0642701 0.0258708 -2.29777 226 220 202
-0.0487363 -0.173776 -1.62076 234 235 227
-0.0237843 -0.145682 -1.65012 231 234 227
-0.0440583 -0.158257 -1.64714 234 236 229
-0.0609866 -0.172632 -1.64442 236 236 226
-0.0162278 -0.130987 -1.6782 235 236 226
-0.0377899 -0.14348 -1.6745 237 236 225
-0.0524411 -0.160782 -1.67148 237 237 227
-0.0611899 -0.182782 -1.669 220 216 202
0.670665 0.305709 -1.84472 129 121 109
0.661942 0.258785 -1.84078 172 167 157
0.642432 0.214045 -1.83514 120 106 88
0.63086 0.16828 -1.83078 141 127 107
0.622243 0.122 -1.8269 128 112 89
-0.00310963 -0.119868 -1.70807 222 222 211
-0.025969 -0.132584 -1.70352 222 221 211
-0.0432939 -0.148615 -1.69974 229 229 220
-0.0551795 -0.168538 -1.69669 222 221 210
-0.0639103 -0.190843 -1.69404 212 206 188
0.661218 0.399994 -1.89477 165 154 134
0.666297 0.35182 -1.89354 142 129 106
0.705483 0.298316 -1.89894 124 115 103
0.657551 0.256013 -1.88727 179 171 156
0.646832 0.209025 -1.8829 128 111 83
0.620743 0.165829 -1.87561 136 119 94
0.599642 0.122572 -1.86932 133 115 89
0.610104 0.0706652 -1.86899 119 105 80
0.667699 0.00145394 -1.87738 108 93 72
0.666198 -0.0502645 -1.87464 135 120 97
0.0487435 -0.103473 -1.74747 234 236 229
0.0105203 -0.107981 -1.73954 230 231 222
-0.0149413 -0.119988 -1.73383 249 249 239
-0.0313755 -0.137884 -1.72968 214 213 203
-0.0441763 -0.158 -1.72615 212 210 197
-0.0560093 -0.178309 -1.7228 209 203 184
-0.0643042 -0.201418 -1.72005 191 182 163
0.672557 0.445949 -1.94738 217 211 201
0.636435 0.400112 -1.93699 151 139 118
0.633602 0.352869 -1.93436 134 121 98
0.720439 0.29335 -1.95229 191 187 178
0.612251 0.162926 -1.92146 174 157 128
0.606375 0.115166 -1.9181 107 90 64
0.606108 0.0655404 -1.91597 108 93 70
0.593627 0.0195822 -1.91113 109 93 68
0.559862 -0.0179128 -1.90165 120 108 88
0.0666601 -0.0914834 -1.78274 235 237 231
0.0299176 -0.0990944 -1.77379 243 245 238
0.000992 -0.110133 -1.76654 224 223 213
-0.0172084 -0.127898 -1.76152 214 214 204
-0.0317878 -0.147627 -1.75728 210 207 192
-0.0449571 -0.167775 -1.75335 206 201 185
-0.0554596 -0.189692 -1.74997 191 184 166
-0.0629188 -0.214089 -1.74721 190 181 161
0.661091 0.587862 -1.9989 138 124 106
0.662132 0.540941 -1.9975 125 106 79
0.680578 0.493442 -2.00075 112 93 70
0.655224 0.445647 -1.99222 164 153 136
0.608904 0.400425 -1.97814 199 192 178
0.59935 0.354114 -1.97391 114 97 74
0.58005 0.165651 -1.96194 91 73 48
0.568636 0.119855 -1.95723 91 74 50
0.554491 0.0751851 -1.95182 103 87 64
0.533984 0.0332196 -1.9448 135 122 103
0.510883 -0.00678176 -1.93715 134 121 99
0.490688 -0.0468471 -1.93028 180 176 166
0.475159 -0.0881033 -1.92462 188 185 178
0.461522 -0.129681 -1.91946 159 150 136
0.0818987 -0.0761857 -1.81934 234 234 226
0.0474967 -0.0873338 -1.80969 232 234 228
0.0216803 -0.102442 -1.80221 233 234 224
0.00128484 -0.120061 -1.79609 216 216 206
-0.0159246 -0.139 -1.79079 216 214 202
-0.0312795 -0.158486 -1.78596 208 204 189
-0.0439663 -0.179485 -1.78179 212 206 189
-0.0540326 -0.202287 -1.77827 174 164 142
-0.0602739 -0.228438 -1.77565 165 151 127
0.617636 0.631779 -2.03674 248 248 246
0.610048 0.585597 -2.03304 170 158 141
0.611135 0.539705 -2.03198 118 102 77
0.60925 0.493233 -2.03001 110 96 74
0.633042 0.445506 -2.03579 123 107 82
0.61098 0.398744 -2.02768 135 117 86
0.536423 0.265864 -2.00102 157 146 127
0.530805 0.220004 -1.99793 91 74 55
0.517467 0.0804918 -1.98966 121 112 99
0.507215 0.0355977 -1.98519 138 129 116
0.492492 -0.00733182 -1.97942 166 162 152
0.474273 -0.0482003 -1.97266 171 166 154
0.4633 -0.0916451 -1.96801 151 143 128
0.446178 -0.131676 -1.9616 139 126 105
0.418622 -0.165202 -1.95222 172 161 143
0.107117 -0.065758 -1.86063 227 226 217
0.0758138 -0.0812491 -1.85065 229 227 217
0.0461149 -0.0957257 -1.84119 225 224 213
0.0226869 -0.112875 -1.83356 221 220 211
0.00330019 -0.131683 -1.82711 218 217 205
-0.0146433 -0.150459 -1.82109 207 204 191
-0.0294936 -0.170829 -1.81596 191 187 173
-0.0417221 -0.192745 -1.81159 176 168 147
-0.0513764 -0.216496 -1.80794 162 153 134
0.602734 0.677377 -2.08211 185 180 172
0.586514 0.630423 -2.07546 202 195 179
0.572301 0.584177 -2.06951 173 162 141
0.568614 0.538735 -2.06715 129 114 89
0.566775 0.493035 -2.06542 117 103 80
0.59776 0.445817 -2.07479 101 87 66
0.583462 0.399056 -2.0688 162 152 134
0.488408 0.361163 -2.0356 223 224 220
0.460862 0.320039 -2.02524 218 219 214
0.445489 0.278238 -2.01901 164 160 147
0.448475 0.23315 -2.01892 142 136 122
0.41348 0.152446 -2.00508 158 154 144
0.402895 0.111031 -2.00048 132 125 111
0.42625 0.0576307 -2.00711 114 101 80
0.494797 -0.0657909 -2.02738 143 132 114
0.487146 -0.11236 -2.02365 114 96 68
0.133842 -0.0541498 -1.9051 237 237 230
0.097443 -0.0686376 -1.89239 229 229 221
0.0690719 -0.0860251 -1.88233 221 220 209
0.0447864 -0.104428 -1.87364 213 210 198
0.0232563 -0.123313 -1.86587 215 213 202
0.0036003 -0.142296 -1.85873 209 206 192
-0.0142135 -0.161569 -1.85221 194 188 173
-0.0285703 -0.182807 -1.84682 170 165 149
-0.0391245 -0.206783 -1.84265 160 156 143
0.487579 0.747158 -2.08997 182 167 142
0.506474 0.709117 -2.09639 131 111 82
0.532703 0.670365 -2.10555 101 80 51
0.558562 0.629358 -2.11454 168 158 146
0.551085 0.583852 -2.1109 141 127 101
0.543607 0.538347 -2.10725 115 98 70
0.537062 0.49284 -2.10395 119 103 76
0.542543 0.446848 -2.10518 99 86 65
0.521176 0.401829 -2.09631 118 107 88
0.458774 0.362136 -2.07209 218 218 212
0.429772 0.32166 -2.06044 217 217 211
0.410071 0.281118 -2.05228 199 197 188
0.396816 0.240122 -2.04654 152 145 132
0.374692 0.201835 -2.03751 183 180 172
0.353638 0.164384 -2.0289 167 164 155
0.336287 0.126804 -2.02168 173 171 162
0.313793 0.0919308 -2.01258 142 137 125
0.30022 0.0546716 -2.00679 196 197 192
0.29541 0.0140603 -2.00423 151 147 137
0.206006 -0.0255931 -1.96985 224 225 218
0.163289 -0.0418454 -1.95347 237 238 233
0.122719 -0.0563592 -1.93793 237 238 231
0.0909972 -0.0737096 -1.92567 228 228 219
0.0646194 -0.0925431 -1.9154 224 222 211
0.0422446 -0.112521 -1.90661 224 223 214
0.0217376 -0.132467 -1.89852 217 216 207
0.00306672 -0.152575 -1.89113 200 197 184
-0.0129849 -0.173746 -1.8847 179 175 163
-0.0256553 -0.197012 -1.8795 165 158 143
0.459156 0.744854 -2.12477 164 150 127
0.456026 0.703469 -2.12297 136 118 93
0.465059 0.663496 -2.12624 117 99 72
0.528055 0.628008 -2.15192 133 119 92
0.539205 0.584169 -2.15602 44 17 2
0.530763 0.538373 -2.15197 97 80 52
0.51866 0.492644 -2.1464 109 93 68
0.514822 0.446943 -2.14426 114 101 77
0.47466 0.403577 -2.12709 143 133 116
0.426763 0.363403 -2.10676 222 222 219
0.403546 0.322639 -2.09665 225 227 223
0.382302 0.282711 -2.08736 206 206 199
0.365657 0.242845 -2.07998 176 172 160
0.345607 0.204592 -2.07121 202 202 195
0.32659 0.167046 -2.06288 174 172 160
0.304241 0.131563 -2.05319 158 154 144
0.273436 0.100464 -2.04004 171 169 161
0.248084 0.069041 -2.02916 190 188 180
0.227235 0.0371003 -2.02013 197 198 191
0.215054 0.00206387 -2.01466 192 192 183
0.184389 -0.0225936 -2.00166 228 229 222
0.147326 -0.0415154 -1.98606 224 224 214
0.114819 -0.0606325 -1.97236 228 228 219
0.0859608 -0.0798799 -1.96017 226 226 215
0.0610999 -0.0999343 -1.94962 225 225 217
0.0397561 -0.120924 -1.94052 214 214 204
0.0198364 -0.141625 -1.93202 193 188 172
0.00333309 -0.163873 -1.92491 172 166 150
-0.0106184 -0.187346 -1.91884 150 144 129
-0.0204739 -0.213816 -1.91444 134 126 111
0.451619 0.746793 -2.16827 150 136 111
0.43442 0.702646 -2.16022 146 133 111
0.436766 0.661901 -2.16106 149 134 113
0.452803 0.621953 -2.16811 117 97 68
0.474978 0.580842 -2.17795 155 145 124
0.519215 0.492436 -2.19752 163 152 134
0.509814 0.446223 -2.193 135 123 101
0.427176 0.405464 -2.15528 169 164 152
0.395161 0.364675 -2.14053 222 224 220
0.374035 0.324138 -2.13072 221 222 218
0.356589 0.283984 -2.12258 205 205 196
0.33927 0.244604 -2.1145 215 216 210
0.321211 0.206222 -2.1061 211 211 200
0.302427 0.168936 -2.09737 180 178 166
0.281223 0.133423 -2.08755 193 193 185
0.248285 0.103521 -2.07244 190 190 184
0.218211 0.0745518 -2.05863 208 210 205
0.195158 0.0442898 -2.048 213 215 209
0.173151 0.0148968 -2.03786 206 208 202
0.155495 -0.0155296 -2.02968 212 213 207
0.132215 -0.0416688 -2.01897 226 225 214
0.105061 -0.0638763 -2.00653 230 231 222
0.0806238 -0.0860533 -1.99532 224 224 216
0.0588563 -0.108489 -1.98531 211 209 198
0.039309 -0.131169 -1.97632 203 200 186
0.0215432 -0.15401 -1.96813 174 168 154
0.00750917 -0.178898 -1.96163 138 130 113
-0.0616812 -0.291876 -1.92961 212 206 197
0.44226 0.706954 -2.21173 130 110 76
0.424269 0.662487 -2.20289 131 115 88
0.436308 0.621959 -2.20888 180 170 151
0.448125 0.580078 -2.21476 108 91 66
0.469571 0.537191 -2.2254 123 111 87
0.496021 0.492239 -2.23852 197 202 198
0.430027 0.44826 -2.20596 171 167 157
0.392883 0.406448 -2.18765 199 198 191
0.369216 0.365367 -2.176 223 224 220
0.349225 0.324992 -2.16617 214 215 209
0.334577 0.284613 -2.15897 207 207 200
0.317448 0.245395 -2.15055 229 232 228
0.29874 0.207403 -2.14135 216 216 206
0.283571 0.169279 -2.1339 180 177 163
0.261768 0.134123 -2.12316 215 213 202
0.225081 0.105936 -2.10507 204 204 199
0.196265 0.0768727 -2.09086 220 223 219
0.170214 0.0483875 -2.07802 214 216 210
0.148526 0.0193513 -2.06733 201 202 195
0.126222 -0.00800952 -2.05634 207 207 199
0.105751 -0.0350496 -2.04626 192 188 176
0.0943335 -0.0666059 -2.04065 211 211 202
0.0781876 -0.0944223 -2.0327 218 217 209
0.424221 0.622443 -2.25214 130 112 81
0.431278 0.580016 -2.25626 176 163 140
0.439047 0.53659 -2.26077 148 134 110
0.454527 0.492061 -2.26941 162 148 124
0.420064 0.44774 -2.2513 169 162 148
0.379001 0.405937 -2.22963 216 216 210
0.352985 0.36499 -2.21602 228 229 225
0.3349 0.324294 -2.20665 219 219 212
0.317802 0.284272 -2.19781 196 192 180
0.299987 0.245218 -2.18858 217 216 208
0.283989 0.206549 -2.18031 210 211 203
0.27061 0.167813 -2.17345 185 183 171
0.244052 0.134242 -2.15949 208 207 197
0.207862 0.106092 -2.14032 216 217 211
0.176147 0.0784855 -2.12355 222 224 218
0.150451 0.0501646 -2.11001 215 216 210
0.127432 0.022131 -2.0979 203 204 197
0.102228 -0.00319487 -2.0846 202 202 196
0.0748868 -0.0255232 -2.07013 194 192 185
0.0541667 -0.0502412 -2.05922 212 211 204
0.0391545 -0.0775736 -2.0514 189 185 175
0.0313017 -0.109358 -2.04744 179 174 162
0.427112 0.536648 -2.3059 196 183 162
0.429249 0.491873 -2.30781 173 159 134
0.441562 0.44599 -2.31562 186 172 149
0.422945 0.40098 -2.30552 160 143 114
0.346864 0.363442 -2.26205 209 206 196
0.327199 0.322556 -2.25129 205 203 192
0.309366 0.282312 -2.24157 202 199 187
0.290839 0.243099 -2.23144 197 194 182
0.273286 0.204562 -2.22186 205 203 192
0.257512 0.166345 -2.2133 196 193 183
0.23044 0.132908 -2.19813 219 220 214
0.196341 0.103988 -2.17884 217 219 215
0.162603 0.0772578 -2.15971 222 224 218
0.134821 0.0500059 -2.14405 214 214 208
0.109707 0.0232342 -2.12991 205 206 199
0.0809022 0.000267327 -2.11359 194 193 185
0.0531882 -0.0213155 -2.09788 194 192 183
0.41541 0.399867 -2.35483 178 162 134
0.392034 0.355832 -2.34125 143 125 97
0.339874 0.317566 -2.30961 141 125 99
0.317908 0.276943 -2.29683 165 154 134
0.295316 0.237674 -2.28362 150 139 119
0.272112 0.199855 -2.27001 165 156 137
0.250733 0.162806 -2.25752 197 191 176
0.226339 0.128081 -2.24309 204 200 188
0.19262 0.0986504 -2.22274 229 229 221
0.158471 0.0717652 -2.20206 225 225 217
0.126263 0.0463592 -2.18256 218 219 212
0.0959657 0.0222393 -2.16423 216 218 213
0.0659963 0.00011602 -2.14605 204 204 197
0.298342 0.187208 -2.33828 154 140 116
0.268986 0.15098 -2.31973 170 158 137
0.239925 0.116555 -2.30132 161 149 129
0.193159 0.0913689 -2.27079 205 199 185
0.157038 0.0648465 -2.24743 228 225 212
0.12827 0.0372824 -2.22901 230 232 224
0.0890718 0.0174648 -2.20339 218 218 209
0.159669 0.0557887 -2.29729 201 193 176
0.119787 0.033241 -2.26957 222 218 202
0.0494899 0.0307489 -2.21933 247 251 245
0.00634533 0.046563 -2.22986 243 250 244
-0.166123 0.116235 -2.23883 219 226 226
0.648188 0.219475 -1.78907 146 134 117
0.645142 0.178766 -1.7861 95 74 45
0.665756 0.336586 -1.84141 127 110 86
0.64925 0.2976 -1.83422 142 132 116
0.630005 0.259886 -1.82618 149 137 121
0.62127 0.220658 -1.82152 156 146 132
0.616317 0.180615 -1.81806 160 146 126
0.613222 0.139938 -1.81518 146 130 106
0.668481 0.417242 -1.88845 165 154 134
0.659555 0.376368 -1.88355 163 152 132
0.660995 0.334334 -1.88236 157 145 125
0.65301 0.293337 -1.8778 166 158 142
0.62179 0.257157 -1.86502 176 169 157
0.613962 0.217224 -1.86055 144 129 107
0.59971 0.179185 -1.85384 157 144 125
0.591953 0.139737 -1.84942 148 134 112
0.595148 0.0966182 -1.84883 104 87 62
0.645371 0.0347111 -1.8645 107 95 80
0.646323 -0.0106145 -1.863 113 99 80
0.640922 -0.0535623 -1.85929 90 76 57
0.631053 -0.094346 -1.85405 114 100 80
0.701318 0.457091 -1.94701 226 224 214
0.648409 0.417153 -1.92452 151 139 120
0.638596 0.376272 -1.91917 141 129 107
0.658318 0.331716 -1.92544 120 109 92
0.646595 0.290629 -1.91932 128 120 107
0.600278 0.130155 -1.89519 148 131 101
0.588842 0.0910043 -1.88925 111 95 70
0.598782 0.0438691 -1.89154 104 88 62
0.591763 0.0028131 -1.88729 109 94 72
0.597935 -0.044379 -1.88808 108 93 71
0.607469 -0.0942573 -1.89011 120 106 83
0.59771 -0.134783 -1.88479 118 104 83
0.571564 -0.165357 -1.87329 133 121 103
0.731938 0.544627 -2.00976 111 99 83
0.671075 0.457363 -1.98063 140 127 109
0.629142 0.417006 -1.96115 166 153 132
0.619383 0.375996 -1.95567 157 145 125
0.598515 0.210143 -1.94163 93 74 51
0.594159 0.168267 -1.93848 89 69 42
0.590664 0.125977 -1.9357 114 97 71
0.581889 0.0853927 -1.93066 103 84 56
0.571403 0.0456995 -1.92491 115 100 77
0.557501 0.00785315 -1.91772 115 101 79
0.545408 -0.030239 -1.91131 115 102 83
0.529957 -0.0660969 -1.90351 116 106 92
0.527304 -0.152517 -1.89977 116 102 79
0.522953 -0.194361 -1.89663 141 130 111
0.503518 -0.22599 -1.88721 157 148 133
0.659761 0.626533 -2.0268 224 220 212
0.648943 0.583999 -2.02064 161 149 131
0.65182 0.542367 -2.02101 118 101 76
0.658221 0.500114 -2.02303 113 94 67
0.67169 0.45675 -2.02838 105 86 61
0.610628 0.416801 -1.99842 203 198 186
0.590229 0.376716 -1.98777 137 121 96
0.588585 0.335084 -1.98599 89 70 45
0.576333 0.166842 -1.97612 98 81 58
0.564997 0.126916 -1.96978 97 83 62
0.556291 0.0864286 -1.96467 104 90 69
0.548465 0.0457858 -1.95998 129 118 102
0.53642 0.00717685 -1.95333 141 131 114
0.521071 -0.0293273 -1.94516 136 126 109
0.503313 -0.0637849 -1.9359 168 163 155
0.484855 -0.0968611 -1.92634 180 176 169
0.469026 -0.130499 -1.91802 159 150 136
0.42467 -0.228588 -1.89459 182 177 166
0.400382 -0.252194 -1.88249 197 191 178
0.667032 0.672457 -2.0793 112 95 70
0.616491 0.624351 -2.05238 223 219 209
0.598695 0.58196 -2.04244 172 162 144
0.590834 0.540833 -2.03765 101 84 58
0.584766 0.499848 -2.03378 124 109 86
0.609577 0.457955 -2.04581 120 104 81
0.588425 0.41683 -2.03417 180 174 160
0.557835 0.377796 -2.0177 176 169 153
0.540615 0.297401 -2.00737 82 64 40
0.5515 0.167433 -2.01063 129 117 105
0.551254 0.123878 -2.00972 135 127 116
0.54171 0.0833514 -2.00407 118 109 97
0.532203 0.043083 -1.99844 131 124 114
0.519416 0.00459632 -1.99115 151 145 134
0.504231 -0.0321345 -1.98267 156 150 139
0.487511 -0.0672644 -1.97341 170 164 152
0.469284 -0.1006 -1.96342 147 137 120
0.449579 -0.131947 -1.9527 146 135 118
0.431648 -0.163282 -1.94289 128 115 95
0.414662 -0.194223 -1.93358 168 159 144
0.399401 -0.225473 -1.92515 174 167 152
0.374758 -0.248281 -1.91203 191 184 168
0.316516 -0.240671 -1.88216 227 221 211
0.071144 -0.147378 -1.75739 181 175 157
0.0562679 -0.161073 -1.74947 167 160 142
0.64222 0.672412 -2.11538 72 52 28
0.585495 0.623508 -2.08317 183 174 153
0.560946 0.580839 -2.06898 173 162 141
0.547084 0.53999 -2.06077 122 106 81
0.537655 0.499753 -2.05504 125 110 85
0.541228 0.459387 -2.05655 110 96 74
0.565325 0.416917 -2.06949 130 120 103
0.527545 0.378695 -2.04797 199 195 185
0.496917 0.34188 -2.03046 220 221 214
0.47671 0.305078 -2.01875 215 217 211
0.484257 -0.0778688 -2.01844 150 143 128
0.462197 -0.109592 -2.00576 137 127 111
0.443499 -0.142063 -1.99495 148 139 123
0.424165 -0.17296 -1.98381 148 139 124
0.404995 -0.202759 -1.97277 154 144 125
0.386765 -0.232068 -1.96225 161 151 132
0.357085 -0.250759 -1.94548 199 192 179
0.0807773 -0.111606 -1.79306 205 202 190
0.0621478 -0.123091 -1.78254 199 194 175
0.045204 -0.134918 -1.77295 204 201 186
0.0328966 -0.150612 -1.7659 189 184 167
0.53339 0.736324 -2.10118 205 194 171
0.533676 0.698063 -2.10115 135 115 85
0.578281 0.666265 -2.12782 116 96 67
0.585114 0.626281 -2.13172 102 82 56
0.544464 0.581421 -2.10702 141 127 101
0.518747 0.539802 -2.09133 128 112 86
0.50772 0.499779 -2.08448 126 110 84
0.521296 0.459395 -2.09244 89 74 51
0.526236 0.418106 -2.09519 104 91 72
0.495067 0.379863 -2.07624 185 182 174
0.465849 0.343311 -2.05847 219 220 214
0.443518 0.307327 -2.04484 197 193 183
0.423022 0.27226 -2.03232 161 154 140
0.414146 0.235282 -2.02679 139 131 116
0.398805 0.200577 -2.01738 183 182 174
0.395702 0.162386 -2.01531 147 142 129
0.388552 0.125583 -2.01081 159 155 144
0.379026 0.089955 -2.00489 118 109 92
0.366373 0.0561725 -1.9971 122 112 95
0.480932 -0.134819 -2.06501 104 84 52
0.459943 -0.167472 -2.05221 135 120 94
0.432206 -0.19402 -2.03538 147 134 111
0.133363 -0.0791245 -1.8562 228 227 217
0.101688 -0.0834601 -1.83712 241 241 232
0.0774499 -0.0921229 -1.8225 231 231 222
0.0579173 -0.103458 -1.81069 225 226 218
0.0411631 -0.116125 -1.80054 221 223 215
0.0286006 -0.132065 -1.7929 228 228 219
0.019424 -0.150976 -1.78728 187 179 159
0.470512 0.76329 -2.10813 185 179 163
0.476998 0.728399 -2.11238 130 112 84
0.479921 0.691933 -2.11433 122 103 77
0.563723 0.667708 -2.16863 166 148 120
0.558071 0.584564 -2.16509 101 85 61
0.515801 0.540779 -2.13779 98 80 50
0.498939 0.499967 -2.12693 119 102 73
0.495457 0.459582 -2.12473 113 98 75
0.495241 0.418772 -2.12465 130 120 102
0.464658 0.380849 -2.10491 216 217 212
0.436804 0.344495 -2.08693 225 226 221
0.413255 0.30911 -2.07173 218 219 214
0.393939 0.274209 -2.05928 183 179 169
0.380385 0.238871 -2.05055 152 145 132
0.36295 0.205435 -2.03931 183 180 172
0.34803 0.172117 -2.0297 167 164 155
0.34265 0.135778 -2.02627 164 160 151
0.331025 0.102228 -2.0188 159 155 145
0.3187 0.0695741 -2.01086 153 150 139
0.306461 0.0375014 -2.00299 151 148 139
0.166228 -0.0524083 -1.91232 229 229 221
0.138685 -0.0641812 -1.8945 222 221 210
0.113282 -0.0755504 -1.87807 227 226 217
0.0892504 -0.0860868 -1.86253 217 215 204
0.0658413 -0.0952323 -1.84738 224 224 213
0.045217 -0.105242 -1.83404 223 223 213
0.0302019 -0.119527 -1.82434 204 199 184
0.0189037 -0.136813 -1.81705 217 216 204
0.00876951 -0.15467 -1.81052 208 201 180
0.44617 0.762439 -2.1378 240 236 227
0.442296 0.725275 -2.13543 148 132 108
0.445956 0.689494 -2.13828 127 110 84
0.45869 0.654495 -2.14744 123 104 77
0.499368 0.500237 -2.17705 118 103 75
0.48354 0.459333 -2.1664 143 134 116
0.473467 0.418799 -2.15974 188 185 172
0.433806 0.381924 -2.13247 208 207 200
0.408082 0.345678 -2.1149 224 225 221
0.386553 0.310273 -2.10023 218 219 213
0.367576 0.275597 -2.08733 193 192 184
0.351888 0.241141 -2.07671 181 178 169
0.334771 0.208028 -2.06509 208 208 201
0.320113 0.175031 -2.05518 179 176 167
0.307873 0.14186 -2.04696 166 163 153
0.296482 0.108922 -2.03932 164 162 153
0.282893 0.0776422 -2.03014 175 174 166
0.266397 0.048724 -2.01891 207 211 206
0.25678 0.0167674 -2.0125 181 181 174
0.200774 -0.0204981 -1.97387 247 252 249
0.172849 -0.0358586 -1.95458 237 238 233
0.146318 -0.0500474 -1.93625 235 235 229
0.121161 -0.0632096 -1.91887 237 239 232
0.098076 -0.0761293 -1.90293 231 231 222
0.0766691 -0.0887131 -1.88815 221 220 209
0.0576221 -0.101858 -1.87502 213 210 198
0.0394812 -0.114383 -1.86251 218 215 202
0.0218818 -0.126001 -1.85037 214 210 195
0.00829583 -0.140761 -1.84105 209 206 192
-0.00308305 -0.157115 -1.83327 207 204 191
0.428819 0.727156 -2.17291 136 122 97
0.422384 0.689069 -2.16873 173 163 146
0.428205 0.653083 -2.17364 136 119 94
0.44688 0.617849 -2.18813 114 95 68
0.461234 0.580323 -2.19943 110 95 71
0.502069 0.458089 -2.23183 225 217 198
0.421721 0.421024 -2.17252 197 198 192
0.396302 0.383809 -2.15417 217 217 211
0.377347 0.347228 -2.14062 219 219 215
0.360102 0.311434 -2.12834 217 218 212
0.346844 0.275675 -2.11903 196 195 186
0.326806 0.242533 -2.10462 215 216 210
0.309986 0.209612 -2.09261 216 217 211
0.295573 0.176808 -2.08239 183 182 172
0.282773 0.144147 -2.07337 178 176 168
0.267835 0.113176 -2.06272 182 181 174
0.250801 0.0841852 -2.05049 187 186 180
0.233919 0.0562274 -2.03835 210 212 207
0.217191 0.0293024 -2.02631 207 209 204
0.204244 0.00102311 -2.01711 192 192 183
0.180948 -0.0191562 -2.00007 230 233 230
0.154316 -0.03498 -1.98046 236 238 233
0.130465 -0.050845 -1.96294 232 232 224
0.107225 -0.0652705 -1.94584 225 224 214
0.0856417 -0.0792631 -1.92997 228 228 219
0.0653384 -0.0926808 -1.91505 224 222 211
0.0469854 -0.106372 -1.90159 224 223 214
0.0295159 -0.119476 -1.88877 217 216 207
0.0125741 -0.131705 -1.87634 218 216 205
-0.0031693 -0.143908 -1.8648 208 206 195
-0.0153798 -0.159144 -1.85594 194 188 173
0.414183 0.691838 -2.21111 134 119 96
0.409295 0.65357 -2.20812 179 169 151
0.415511 0.616688 -2.21396 155 142 120
0.429474 0.579551 -2.22598 136 121 97
0.439277 0.540605 -2.23473 117 100 72
0.470712 0.500558 -2.26077 154 138 111
0.421125 0.460065 -2.22216 171 167 157
0.392859 0.421627 -2.20052 185 182 174
0.371756 0.38425 -2.18457 220 221 216
0.354647 0.347552 -2.17179 222 223 219
