ply
format ascii 1.0
comment Created by Open3D
element vertex 736
property double x
property double y
property double z
property double nx
property double ny
property double nz
property uchar red
property uchar green
property uchar blue
end_header
0.994002 1.43192 2.29373 0.059381 -0.109767 -0.98567 0 0 0
1.00976 1.28319 2.2918 -0.0587807 -0.139209 -0.977417 250 222 212
1.10156 1.25 2.27261 -0.22968 -0.0821561 -0.96814 254 254 254
2.67057 2.31901 1.68586 -0.324687 -0.0779053 -0.93218 220 226 234
2.68635 1.34246 1.69097 -0.31229 0.0107208 -0.944537 174 190 204
1.61071 1.37422 1.37727 0.298091 -0.014478 -0.952713 254 254 254
3.36328 2.24219 0.983279 -0.195921 0.0522811 -0.979024 49 31 10
2.23621 1.6237 1.52875 0.194661 0.0190127 -0.98048 196 207 211
2.7487 1.34505 1.6712 -0.301132 0.0525418 -0.951097 174 191 202
1.44486 2.35981 2.16816 -0.0658496 -0.395718 -0.877009 238 225 222
3.28545 1.86766 1.51985 -0.304437 0.0734811 -0.946872 137 150 159
2.11719 2.4132 1.07812 0.00967156 -0.999268 -0.029879 197 139 102
3.19548 1.80469 1.54332 -0.389016 0.0885435 -0.915466 145 158 166
2.29297 1.96407 1.42578 0.175722 -0.779789 -0.600875 213 219 220
1.10192 1.74856 2.27702 -0.0557896 0.116323 -0.956126 253 254 249
1.75753 1.625 1.76562 0.992659 0.0108935 -0.0796659 218 223 223
3 1.90656 1.21094 -0.00749391 -0.999238 -0.015687 75 70 65
0.793551 2.02958 2.18631 0.884541 -0.0091147 -0.436757 249 232 220
2.66797 2.40118 1.68359 -0.922879 -0.383835 0.0310614 0 0 0
1.42831 2.28962 2.172 -0.472552 -0.102875 -0.835759 250 236 231
3.57031 1.90521 1.16406 0.00962864 -0.991876 -0.0545991 69 64 59
2.8689 1.34453 1.63231 -0.301335 -0.0520485 -0.949196 173 189 203
2.78087 1.32812 1.65999 -0.317519 0.0483923 -0.942696 172 188 200
1.33984 1.38962 1.10547 -0.669029 0.0670038 -0.74021 0 0 0
3.3239 2.21226 0.980669 0.405211 -0.0345503 -0.911218 44 25 6
3 1.39844 1.59629 -0.250316 -0.0368495 -0.964105 165 179 189
3.46484 1.38672 1.43155 -0.511495 0.0454349 -0.858084 236 245 239
3.33594 1.90792 1.03125 -0.0180762 -0.999093 -0.00272344 71 64 60
1.02227 1.5538 2.2925 -0.375915 0.0803918 -0.919415 254 253 246
1.20312 1.375 2.24365 -0.188209 -0.107526 -0.975402 253 232 236
2.03003 1.17963 1.88639 -0.289863 -0.153232 -0.941452 181 191 195
3.8125 1.56276 1.32812 -0.120176 0.955071 -0.262435 50 52 53
1.9375 2.40588 1.46875 0.00737625 -0.999324 -0.0077128 180 136 109
1.71948 1.58203 1.66406 0.946097 -0.0412863 0.319148 234 242 243
1.20312 2.38193 2.25 0.00208795 -0.9947 -0.0893584 251 217 210
1.20312 2.39856 1.32812 0.02046 -0.998893 -0.0303404 252 185 152
3.72286 1.17969 1.37127 -0.511063 -0.0424551 -0.50171 109 92 92
1.21875 1.39844 2.24092 -0.243038 0.0156093 -0.949572 253 239 237
0.991557 1.32679 2.286 0.217211 0.300163 -0.886746 0 0 0
3.18359 1.22266 1.54851 -0.354446 -0.176015 -0.918361 161 175 185
1.20234 1.40047 2.24406 -0.273762 0.0314624 -0.957959 251 232 232
1.59217 1.37561 1.37176 0.281696 0.0336938 -0.958372 255 255 255
1.25027 2.09285 2.24551 -0.281986 -0.243702 -0.889178 237 205 198
2.3763 1.58052 1.55788 0.0626316 -0.178489 -0.97149 175 190 199
2.96171 1.25 1.61369 -0.268757 -0.0269582 -0.960156 166 183 193
3.07812 2.01562 1.04644 -0.285676 -0.000449166 -0.957865 53 39 27
2.52344 2.40066 1.55469 0.0096604 -0.999423 0.00101511 200 166 152
2.10156 1.44531 1.8669 -0.215627 0.10989 -0.961608 200 210 214
1.64022 2.40245 1.40464 0.120305 -0.986952 -0.0707131 210 146 112
1.10156 1.13281 2.31236 0.134593 0.415361 0.69953 252 240 244
2.72347 1.89378 1.21094 0.630217 -0.760047 -0.1567 122 128 132
1.75391 1.34375 1.72568 0.877818 0.026609 -0.475842 220 229 234
2.03125 2.40795 1.32812 0.0142991 -0.999429 -0.0151158 245 165 115
3.63167 1.89922 1.40844 -0.282175 -0.0191259 -0.948314 126 136 144
2.65411 2.37872 1.39082 -0.23637 -0.967879 -0.0315616 167 170 166
1.35288 1.21533 2.21408 0.43978 -0.700486 -0.535408 254 255 254
1.74609 1.98157 1.87843 -0.0600648 -0.0490184 -0.996689 0 0 0
1.32094 2.38674 2.03718 0.0604752 -0.9955 -0.00674785 251 229 216
2.99927 1.38814 1.59782 -0.269231 -0.0950215 -0.957566 164 178 188
2.08594 2.41562 0.941406 0.0162487 -0.998945 -0.0228336 222 168 134
2.96094 1.35938 1.6075 -0.27177 0.0549862 -0.957385 166 180 191
2.28125 2.41176 1.16406 -0.0121177 -0.999131 -0.0355132 158 109 79
2.53168 2.34375 1.73047 -0.362229 -0.10636 -0.917317 255 255 254
2.55271 1.39844 1.73699 -0.27226 -0.0292572 -0.959144 169 186 196
1.14062 2.38801 1.97656 0.0085587 -0.997557 0.0137669 247 182 165
2.74662 1.94383 1.14653 0.79217 -0.382682 -0.149338 0 0 0
1.75781 2.39904 1.69141 -0.00825726 -0.999133 0.0295875 183 129 92
0.996757 0.956987 2.2853 -0.10877 -0.012193 -0.992243 0 0 0
3.9099 1.66792 1.34005 0.389724 -0.172472 -0.902612 0 0 0
3.56977 1.86719 1.42549 -0.412995 0.0675432 -0.891282 132 142 151
3.33594 1.90815 1.01562 0.024489 -0.995839 -0.0421446 69 63 59
1.67188 1.96875 1.49247 0.312061 0.00100079 -0.948822 250 253 253
3.47266 1.38672 1.42803 -0.14441 0.00117137 -0.989517 218 243 251
3.06362 1.95542 1.043 -0.256233 0.0203033 -0.964854 51 35 19
1.23438 2.3825 2.23438 -0.000330836 -0.994782 0.0607747 246 214 205
1.25078 1.40013 2.23262 -0.251874 -0.0444572 -0.95936 252 238 231
1.23357 1.86806 2.2447 -0.189325 0.120396 -0.953648 254 254 254
1.24607 0.895173 2.24656 -0.0830995 -0.514451 -0.845549 0 0 0
2.22656 1.88337 1.48123 0.137478 -0.471522 -0.869224 254 253 253
1.71484 2.23828 1.75839 -0.267867 -0.0187527 -0.963273 231 234 227
2.14633 1.88493 1.12428 -0.578172 -0.678908 -0.292745 213 225 233
1.30663 1.80469 2.21255 -0.65403 -0.0563781 -0.752765 253 251 248
2.42154 2.28984 1.76288 -0.34311 0.172567 -0.905314 230 238 243
2.43533 1.28125 1.77012 -0.300353 0.060138 -0.951488 181 198 208
2.16391 2.27344 1.8398 -0.258765 0.0439533 -0.964624 255 254 255
1.72017 2.24089 1.67839 0.960619 0.0709681 0.262133 241 243 240
2.17747 1.32769 1.84721 -0.227127 -0.0395708 -0.967336 189 202 209
0.748578 1.98438 1.99219 0.98033 -0.00496481 -0.141425 244 217 210
3.00217 1.65625 1.59931 -0.350453 -0.049393 -0.930686 163 177 186
0.749117 1.94531 2.00781 0.929734 -0.0377117 -0.337412 244 225 219
2.53906 2.40598 1.30469 -0.0376698 -0.99904 -0.00934531 154 110 81
2.28125 2.4145 0.777344 -0.0129028 -0.999431 -0.00389028 234 157 116
0.996584 1.14418 2.34021 0.619058 -0.319804 0.569849 247 208 205
1.92578 2.23828 1.93882 -0.197545 -0.0711056 -0.977712 253 253 253
2.84766 1.32422 1.63925 -0.177272 -0.123145 -0.976427 173 189 202
2.92578 1.64453 1.6246 -0.333091 0.0759289 -0.939833 161 175 183
2.11274 2.38635 1.34375 -0.51264 -0.85208 -0.0634817 210 216 216
1.04036 2.14193 2.29465 -0.242023 -0.0619951 -0.946595 231 216 205
2.88442 1.42793 1.63 -0.250948 0.0806997 -0.96412 172 186 197
1.05469 1.16406 2.28859 -0.242717 -0.125391 -0.954392 252 243 243
2.63932 2.41505 0.735677 0.0599278 -0.997407 -0.0185367 114 71 42
1.78311 2 1.87891 0.281109 -0.0189702 -0.957627 188 189 184
0.607181 1.09848 2.44264 0.231519 0.922757 0.137817 84 69 67
0.753906 2.38369 1.88672 -0.2131 -0.968556 -0.128403 245 175 141
3.04712 1.39844 1.58201 -0.292712 -0.0201274 -0.954649 165 179 190
1.91016 1.12891 1.9238 -0.306062 0.234413 -0.922701 167 173 176
2.61177 2.02884 1.37795 0.286702 -0.890701 -0.349988 166 177 179
1.54954 1.59426 1.35865 -0.864908 -0.0542668 -0.485656 56 56 56
1.11328 2.40399 1.22656 0.0309733 -0.999112 -0.0237263 247 179 144
2.53906 1.60938 1.57653 0.0946585 0.0172107 -0.991879 171 182 187
1.9668 1.11719 1.91103 -0.327637 -0.0228825 -0.940846 174 183 185
1.3523 1.52401 2.18519 -0.388457 -0.197697 -0.895024 254 254 253
1.6943 1.86719 1.52344 0.994932 0.0172337 -0.0353564 246 251 253
2.65625 2.41393 0.820312 -0.025646 -0.995452 -0.0877495 119 76 45
1.75416 1.20722 1.7325 0.920855 -0.0800213 -0.370326 194 205 207
2.91483 2.38954 1.60261 -0.0642596 -0.483955 -0.679828 137 132 130
2.91406 2.414 0.652344 -0.0296433 -0.993545 0.108394 107 68 41
2.65258 1.65658 1.71488 -0.203362 0.0489389 -0.976822 142 148 151
3.04784 1.375 1.58253 -0.341348 -0.0393241 -0.931916 167 181 192
1.83594 1.86719 1.95477 -0.1938 -0.0650381 -0.978092 183 184 179
3.0625 1.38672 1.57662 -0.280394 0.0553764 -0.957336 164 178 189
1.09824 1.11791 2.27017 -0.286842 0.223773 -0.927814 252 228 234
1.28383 1.98438 2.23737 -0.546615 0.0964336 -0.81468 254 251 243
1.29323 1.07227 2.22754 -0.276356 -0.0170393 -0.955094 253 255 253
0.750443 2.38577 1.86328 -0.182779 -0.976811 -0.0408249 250 172 146
3.04594 1.38672 1.58145 -0.352029 0.0114275 -0.934796 164 178 189
2.16378 2.31869 1.04745 -0.35899 0.596727 -0.665232 155 127 116
2.22656 1.75 1.53065 0.191464 -0.160903 -0.96562 255 254 254
2.43359 1.61328 1.56453 0.0867419 0.088995 -0.992248 180 191 195
2.91236 2.03212 1.08954 -0.232051 -0.0101489 -0.968318 52 36 26
2.86719 1.32812 1.63425 -0.254364 -0.102098 -0.96128 172 189 201
2.88681 1.94531 1.16397 -0.951684 -0.0192481 0.305501 91 79 66
2.82031 2.39755 1.51172 -0.00787434 -0.998691 -0.0210812 112 86 74
1.23593 1.34375 2.23737 -0.294416 -0.00131414 -0.950884 254 254 253
1.21875 1.25 2.24207 -0.176609 0.0279659 -0.977716 255 255 254
0.679688 1.39844 2.36793 -0.237852 -0.0591726 -0.965198 254 210 210
0.763578 2.09375 2.06362 0.952209 -0.0353502 -0.290104 252 250 238
2.94322 1.34276 1.61291 -0.230539 -0.0403118 -0.969188 169 185 195
3.24089 2.40764 0.939044 0.00809303 -0.988423 -0.125928 101 70 41
2.7487 1.32682 1.67073 -0.304932 -0.056922 -0.947343 171 188 198
1.42969 2.39294 1.55469 0.0489861 -0.984768 -0.01095 252 244 232
2.59818 1.98969 1.44179 0.280953 -0.762031 -0.573234 165 176 179
2.70782 1.86255 1.34563 0.818121 -0.480298 0.162273 58 62 64
2.98828 2.40954 0.941406 -0.0273505 -0.999625 -0.00146694 102 63 34
3.07812 1.46094 1.57137 -0.305633 -0.0510903 -0.950373 163 177 188
2.9111 1.91154 1.24319 -0.694973 -0.459637 0.239585 92 82 70
2.83594 1.50781 1.64904 -0.328743 0.128284 -0.93228 171 185 196
0.679688 1.38672 2.36887 -0.201351 0.0261771 -0.967899 254 207 207
0.729673 1.61068 1.95982 0.926103 0.0416637 -0.248018 217 172 158
1.27928 2.40214 1.14787 -0.0428057 -0.996499 -0.0394545 246 193 164
2.13377 1.07422 1.84563 -0.13283 0.270226 -0.792813 185 198 205
3.29207 1.23622 1.47123 -0.833201 0.0477482 -0.45557 55 61 64
2.98828 1.34375 1.60003 -0.298513 0.0531683 -0.952576 171 185 197
2.95941 2.22734 1.4359 -0.93722 0.0099668 0.343066 36 31 30
0.713051 1.37476 2.36344 -0.259292 -0.0784809 -0.938948 251 202 201
2.10256 2.39252 1.8578 -0.204603 -0.626372 -0.610647 231 221 213
2.17969 2.41389 0.941406 -0.0161375 -0.999737 0.00898441 251 170 118
2.11593 1.41499 1.86217 -0.263513 -0.0448963 -0.961252 197 208 212
2.75391 2.25207 1.6729 -0.0177062 -0.840646 -0.517729 196 211 222
0.710262 1.71931 1.89759 0.893498 0.00204774 -0.274223 83 62 61
2.89583 1.32553 1.62781 -0.140667 -0.20652 -0.960797 170 186 198
3.10938 1.39844 1.5617 -0.226411 -0.0340201 -0.969383 162 175 186
3.11058 2.01675 1.03572 -0.325302 0.00467042 -0.940974 52 38 27
1.56284 1.45964 1.36212 -0.173829 -0.0578025 -0.913789 254 255 254
0.628906 1.27238 2.40234 -0.471005 0.711614 -0.521307 0 0 0
2.11719 2.40131 1.69141 -0.0427013 -0.996514 -0.0683361 251 193 146
2.21484 1.1587 1.8327 -0.35295 0.245163 -0.901527 186 201 208
1.89062 2.40634 1.39062 0.0230243 -0.999135 -0.0272803 218 156 114
3.25147 1.48047 1.51953 -0.292119 -0.0495906 -0.955095 157 171 181
3.09424 1.39844 1.56668 -0.336587 -0.015012 -0.939896 163 177 188
2.59743 1.53946 1.73035 -0.315711 0.0816432 -0.939493 159 173 184
2.1982 2.06526 1.13672 -0.695834 -0.716862 0.0151771 253 254 254
0.727865 1.39714 2.35719 -0.193177 0.162921 -0.963183 252 213 208
2.32812 1.6875 1.55468 0.201462 0.106425 -0.972178 190 201 203
3.07716 1.43047 1.57212 -0.30542 0.0588419 -0.947877 164 178 189
1.39662 2.27413 1.08907 -0.270305 0.0354686 -0.961788 252 216 210
2.79623 1.46208 1.66001 -0.354021 -0.0375557 -0.930729 173 189 201
2.13151 2.4146 0.998698 -0.0127343 -0.999066 -0.0197779 165 107 67
3.30469 1.9063 1.46875 0.131906 -0.894967 0.361019 88 91 94
1.21875 1.21875 2.24109 -0.25717 -0.0104331 -0.958979 254 255 254
2.38709 2.30547 1.77624 -0.355541 0.0910704 -0.926059 254 255 255
2.40507 1.21842 1.77727 -0.268919 0.055807 -0.95592 179 196 206
1.08984 1.03516 2.26754 -0.227393 0.116586 -0.966799 254 254 254
2.19891 2.06607 1.09375 -0.752786 -0.647484 0.103078 252 251 251
0.722656 1.40234 2.36046 -0.165547 -0.0488172 -0.984993 254 213 208
2.14844 2.0625 1.86737 -0.310296 -0.0385817 -0.945783 255 254 255
1.24609 1.82031 2.24015 -0.258981 0.0879962 -0.959867 253 251 242
1.95504 1.50781 1.91101 -0.23557 0.0123979 -0.97059 254 254 254
2.07109 2.41078 1.15058 0.0039709 -0.998812 -0.0440778 254 180 131
0.709587 1.39922 2.36127 -0.24462 0.0439301 -0.957856 252 209 208
1.37492 2.01953 2.17578 -0.443514 0.183144 -0.877356 254 254 241
1.3835 1.41607 2.174 -0.422202 -0.131125 -0.865382 253 247 245
2.53759 1.18067 1.73149 -0.311168 0.406603 -0.856835 177 193 207
3.10547 1.375 1.56463 -0.167708 0.00741557 -0.984369 163 177 188
2.86775 2.35938 1.61753 -0.354725 0.0757644 -0.928006 162 166 172
0.644531 1.01079 2.47266 0.0800239 0.996442 -0.0264571 253 242 230
3.17353 1.32981 1.54449 -0.264164 -0.071191 -0.959722 163 176 186
3.09406 1.38672 1.56669 -0.27984 0.023773 -0.957421 165 178 189
2.65625 2.40484 1.27344 -0.0135203 -0.998676 -0.0312849 98 66 42
1.76172 1.54297 1.84774 -0.161152 0.147913 -0.975783 175 177 174
1.54007 1.58203 1.37891 -0.914659 -0.0636612 -0.399181 0 0 0
2.91016 1.31641 1.62499 -0.227346 0.022312 -0.973558 170 187 197
2.34505 2.08878 0.918244 -0.0528885 0.750225 -0.657942 236 230 223
2.43359 1.67188 1.5685 0.136809 0.147239 -0.979554 182 193 197
3.31957 1.3275 1.45579 -0.210937 -0.174083 -0.948877 55 56 59
1.71135 1.32812 1.60489 0.487586 -0.017558 -0.861486 238 246 248
1.67188 2.41476 0.941406 0.00292204 -0.999147 -0.0251481 253 179 135
1.68359 1.32812 1.60309 -0.00707625 -0.142111 -0.987869 0 0 0
2.20977 1.95703 1.04688 0.866602 -0.0809047 0.269253 0 0 0
1.28516 2.39646 1.55859 0.0571925 -0.993299 0.100428 0 0 0
0.730526 1.58335 1.95876 0.93293 -0.240394 -0.223745 234 184 172
1.11328 1.10156 2.2643 -0.272502 -0.0468435 -0.958523 253 243 243
3.31901 1.83464 1.50676 -0.296016 0.0569251 -0.950904 140 153 162
1.05576 0.936229 2.27715 -0.242787 -0.115154 -0.878703 248 215 213
3.37473 1.24992 1.4644 -0.289764 -0.139556 -0.933016 45 45 43
1.20336 1.57031 2.24615 -0.284096 0.129663 -0.947865 253 248 240
3.00269 2.20892 1.62116 -0.252372 0.0848192 -0.959165 149 154 151
2.60547 1.20703 1.71092 -0.341306 -0.0172184 -0.939795 177 193 206
1.68872 1.31641 1.55078 0.691865 -0.123962 0.711306 0 0 0
2.04759 2.19577 1.90289 -0.286081 -0.0361942 -0.951246 254 254 254
0.742834 1.40056 2.35563 -0.035829 0.0780957 -0.97697 243 221 225
1.32422 2.39792 1.47266 0.00386973 -0.999121 -0.0417284 244 196 178
3.14062 1.38672 1.55302 -0.309044 -0.127909 -0.938739 164 176 187
2.59932 2.00234 1.00182 -0.157939 -0.929872 0.310329 195 214 229
3.64714 1.59505 1.40135 -0.138274 0.00298615 -0.9786 127 134 140
2.19976 2.01432 0.980127 0.799786 -0.12562 -0.58484 251 253 253
0.730398 1.59239 1.96315 0.949997 0.0278316 -0.236468 249 226 211
2.12109 2.3841 1.31641 -0.319875 -0.946796 -0.0354655 212 220 221
1.05339 1.14174 2.35286 -0.310244 -0.8853 -0.0465948 0 0 0
3.15228 1.37382 1.55073 -0.284647 -0.00974532 -0.956375 164 177 188
2.01219 2.03005 1.91029 -0.257689 0.0453879 -0.965005 254 254 254
0.761719 1.65234 2.06944 0.948757 0.143701 -0.281442 242 186 173
2.97323 2.33203 1.48362 -0.953584 -0.0221465 0.29757 0 0 0
1.29609 1.13177 2.22066 -0.192668 -0.136292 -0.960775 253 246 243
0.628906 0.866224 2.40728 0.0123526 0.51954 -0.851623 0 0 0
2.43359 2.40853 1.22656 0.0245674 -0.997483 -0.0523037 160 114 83
1.3821 1.15234 2.25 0.744521 -0.133951 -0.641465 253 253 249
3.43783 1.47719 1.43428 -0.281426 -0.162911 -0.93467 102 131 145
2.19577 1.17815 1.83961 -0.242989 0.0203835 -0.966005 187 200 208
2.89935 1.52344 1.62962 -0.29924 0.111758 -0.944249 171 185 197
1.82031 2.41701 0.820312 -0.0306421 -0.998885 0.00780295 173 133 104
3.36328 1.90501 1.17969 0.0209499 -0.998437 -0.0254181 74 68 64
1.82031 2.40014 1.69922 0.0354407 -0.997558 -0.0569174 213 156 119
3.66406 1.90512 1.19531 0.0146246 -0.974037 0.0883854 64 60 57
1.32422 2.40036 1.46484 -0.110735 -0.992567 0.0504795 0 0 0
3.10904 1.73438 1.56616 -0.284685 0.0684061 -0.953477 156 169 178
3.14141 1.37296 1.55393 -0.286715 0.0531284 -0.947522 164 176 188
2.95964 1.32682 1.6101 -0.240877 -0.152029 -0.954175 169 183 194
2 2.40872 1.30469 -0.0345676 -0.997049 -0.0438188 254 184 127
2.19453 1.79066 1.51526 0.156796 -0.343836 -0.922112 255 255 255
1.28516 1.14313 2.22302 -0.34614 0.213452 -0.912832 252 234 233
1.54577 2.19466 1.36011 -0.786239 -0.045216 -0.610685 254 254 254
1.80046 1.03741 1.96193 -0.326627 0.100721 -0.91981 137 142 143
1.56328 1.26465 1.36518 -0.321462 0.214756 -0.73924 255 255 255
2.9987 2.0013 1.07124 -0.29318 0.052583 -0.952016 62 47 28
1.08653 1.04011 2.27001 -0.328863 0.121924 -0.933273 254 254 254
1.07031 1.94531 2.2811 -0.198036 0.219838 -0.940566 234 211 205
2.19457 2.0625 0.973118 0.156568 -0.0346548 -0.983005 231 231 231
1.17326 2.30547 2.27147 -0.247709 0.12873 -0.939283 244 236 232
3.15234 1.36328 1.54931 -0.20227 0.179276 -0.962781 164 176 186
2.17367 1.9987 1.02868 -0.62406 0.302819 0.704795 208 205 205
3.29796 1.21484 1.48828 -0.964268 -0.13418 0.228437 116 126 132
0.636719 1.15891 2.4115 0.366263 -0.129986 -0.0583329 127 125 123
3.4581 1.65755 1.45808 -0.293514 -0.10381 -0.944871 140 150 159
0.628906 1.19531 2.40812 -0.342089 0.130145 -0.919391 0 0 0
2.98822 1.32812 1.60134 -0.291235 -0.16789 -0.940387 170 184 195
2.44531 2.41146 0.96875 -0.00113582 -0.999897 -0.00392328 234 148 98
1.6093 2.17969 1.37113 0.30875 -0.0685842 -0.948352 254 254 255
2.41016 1.17969 1.77393 -0.328887 0.0559476 -0.941862 181 197 210
2.14844 1.71875 1.52396 -0.0114935 -0.0695346 -0.995604 255 255 255
2.28125 2.2607 1.81405 -0.122722 -0.778453 -0.527604 255 255 255
2.29853 1.28293 1.81008 -0.25039 -0.0440883 -0.963479 189 206 217
3.18359 1.38672 1.54123 -0.312033 -0.052652 -0.948611 160 173 183
1.86719 2.32031 1.92875 -0.261908 -0.0535579 -0.961358 254 254 254
1.87938 1.37535 1.92601 -0.226999 -0.0607438 -0.971677 176 180 177
1.41406 2.39038 1.8125 -0.242907 -0.962351 -0.0704622 251 241 227
3.30649 2.40251 1.04292 -0.0961269 -0.905297 -0.387903 0 0 0
2.05859 2.41568 0.898438 -0.00474462 -0.999108 -0.0336133 241 168 130
2.07031 1.42969 1.87522 -0.296067 0.0660229 -0.949399 216 224 225
0.991909 1.37255 2.29458 0.0132276 0.224825 -0.901587 0 0 0
1.07031 2.04688 2.28993 -0.188182 -0.0127414 -0.937964 254 251 239
2.29688 1.79297 1.53272 0.17902 -0.323066 -0.928528 254 254 254
3.29034 1.90226 1.34487 0.012735 -0.998948 0.0145699 72 68 66
1.62672 2.19531 1.37735 0.488 -0.00883922 -0.860929 253 254 254
1.63672 1.25 1.38288 0.538685 0.125704 -0.82672 245 253 254
1.80024 1.07299 1.95598 -0.417997 0.151584 -0.883144 143 148 149
3.60078 1.23633 1.40415 -0.237418 -0.223197 -0.917881 97 90 91
0.601921 1.01236 2.51642 0.0385382 -0.626554 -0.265969 253 246 234
2.98933 2.40993 0.926527 0.036067 -0.998113 -0.0433625 100 60 30
3.21484 1.38672 1.53179 -0.265671 -0.179497 -0.947206 157 171 181
1.44531 2.377 1.96094 -0.0108964 -0.987564 0.0350263 236 224 218
1.43663 2.39062 1.05078 0.963474 -0.0167689 -0.265459 145 124 119
3.28365 1.87788 1.51953 -0.259621 -0.164753 -0.951466 132 145 154
1.44531 2.37318 2.05469 0.0613024 -0.990507 -0.030423 251 243 237
2.86719 2.40591 1.09375 -0.0243929 -0.999269 -0.0141788 101 63 33
1.44318 2.39062 1.07537 0.960652 0.0240068 -0.274353 142 119 110
1.45229 1.44401 1.07943 0.973128 0.00320506 -0.227779 147 157 165
0.992188 1.39844 2.29602 -0.110382 0.234164 -0.941692 0 0 0
3.25781 1.38672 1.51833 -0.203242 -0.0455877 -0.96992 159 173 184
3.73332 1.90234 1.19141 0.533553 -0.732453 0.422888 0 0 0
1.80078 2.17969 1.95489 0.650524 0.0756123 0.754709 0 0 0
1.74351 1.37389 1.72226 0.353774 0.036453 -0.927744 231 239 244
3.54075 1.76172 1.43185 -0.444237 0.00923322 -0.895222 137 147 156
3.9209 1.83761 1.3249 -0.355585 0.257744 -0.688432 65 71 74
3.26172 1.375 1.51777 -0.282931 -0.0586705 -0.952915 159 174 185
1.44141 1.44531 1.14086 0.48025 -0.00568805 0.877081 0 0 0
1.77344 2.30469 1.89348 -0.05335 -0.0338259 -0.987349 168 168 162
1.96809 2.26101 1.90173 -0.333741 -0.358873 -0.791653 254 254 254
1.79348 1.32812 1.88803 0.938706 -0.0202094 0.339771 155 160 158
3.94265 1.85656 1.31641 0.615938 0.578705 -0.510533 116 127 133
1.98601 1.11728 1.903 -0.318303 -0.0192239 -0.93774 179 188 192
1.78847 1.32812 1.84355 0.69728 0.00749148 -0.609964 160 164 160
2.05596 1.07031 1.8773 -0.370919 0.00194428 -0.909498 180 191 196
1.67019 2.28828 1.49834 0.325019 0.0865561 -0.93665 250 252 251
1.68359 1.35938 1.48999 0.341928 -0.0513855 -0.93791 241 253 254
2.375 1.91646 1.48716 0.0740354 -0.631951 -0.771005 255 254 254
1.83724 1.88411 1.95311 -0.200881 0.0250568 -0.970604 182 183 178
3.43915 1.39766 1.43674 -0.282627 -0.096634 -0.949524 169 171 136
3.875 1.85156 1.33479 -0.249208 -0.181879 -0.937804 119 129 137
3.22889 1.37414 1.52828 -0.334307 -0.0415652 -0.930713 158 172 182
2.25 1.58203 1.53161 0.200252 -0.181261 -0.961559 179 194 201
2.71711 2.40205 1.43779 -0.106879 -0.991684 -0.0506833 169 151 139
1.69922 2.25391 1.62511 0.13543 -0.0244914 -0.990484 253 254 254
3.74972 1.68672 1.37183 -0.244211 0.0348671 -0.932947 133 142 150
0.992947 1.61307 2.30114 -0.0164404 0.342899 -0.90603 127 128 123
2.71875 2.40854 1.03125 -0.000321419 -0.998953 -0.033669 157 92 48
1.25006 0.968622 2.238 -0.171329 -0.0144138 -0.973734 253 247 245
2.62742 1.47656 1.71649 -0.308507 0.0006687 -0.9488 166 180 191
0.789693 2.17969 2.17578 0.982746 -0.0466309 -0.178206 238 208 184
1.90786 1.05581 1.92638 -0.040247 0.198986 -0.952491 159 167 169
3.57228 1.83481 1.42589 -0.289935 0.180208 -0.904069 136 146 155
1.44141 1.42969 1.14084 0.476789 0.0076088 0.878982 0 0 0
2.16406 1.65579 1.51959 0.02767 0.0999264 -0.993654 254 254 253
1.72285 1.50781 1.64508 0.946206 0.0550963 0.312578 243 251 252
0.753906 2.38413 1.85547 -0.0241201 -0.999585 -0.015751 250 172 147
0.70878 1.19241 2.41369 -0.333525 -0.38006 0.156396 246 222 218
1.30078 1.06641 2.22347 -0.348696 -0.0276967 -0.936827 254 254 254
2.76562 2.40587 1.14844 -0.0173145 -0.999449 0.00910641 159 100 57
1.22266 1.32422 2.23913 -0.370604 0.0557497 -0.927116 254 254 254
3.40681 1.91277 1.48126 -0.299533 -0.219064 -0.834833 103 107 109
1.00362 1.12074 2.38375 -0.405297 0.683315 0.272367 0 0 0
3.24219 1.9005 1.42188 -0.000470697 -0.99859 -0.0145006 70 66 66
1.92188 1.13281 1.92145 -0.189403 -0.0244446 -0.979921 170 178 180
3.09505 2.41267 0.772135 0.0983855 -0.993623 -0.0186246 104 64 34
1.7238 2.10938 1.64844 0.997516 -0.00594763 -0.0460445 246 248 246
3.54766 1.56655 1.4229 -0.107343 0.742485 -0.444668 121 128 133
2.42219 1.17969 1.76976 -0.327451 0.125984 -0.934305 183 199 212
1.38268 1.297 2.2017 0.433959 -0.0890498 -0.733547 253 244 246
1.32788 2.38672 1.12891 -0.796683 -0.477452 0.370587 249 233 217
1.33535 1.44531 1.12109 -0.964268 0.181703 -0.118641 0 0 0
2.1375 1.99998 1.40789 -0.964338 -0.0992748 -0.230324 182 182 182
1.72277 2.34375 1.66442 0.956338 -0.0738729 0.271443 241 235 229
3.54274 1.80391 1.43262 -0.300778 -0.0555971 -0.93865 136 146 155
1.75781 2.39771 1.84375 0.0958318 -0.98022 0.0343876 87 60 44
1.77383 1.38672 1.83941 0.255473 0.0494008 -0.961132 176 178 172
1.80595 2.17969 1.92969 0.996967 0.0319188 0.0427632 184 185 180
1.24905 2.13982 2.24587 -0.344131 0.143805 -0.922218 248 242 234
2.44336 2.12238 0.999759 -0.0459437 0.926152 -0.343954 248 248 245
1.82161 1.23307 1.93855 -0.251467 0.0865391 -0.960771 151 154 153
1.79036 1.16536 1.95278 -0.211654 -0.100668 -0.968219 101 104 105
1.47054 2.35547 1.53906 -0.505319 -0.852029 0.129181 253 254 252
1.66979 2.30547 1.49917 0.390644 0.0307411 -0.914357 248 251 250
1.97059 2.18058 1.92657 -0.324826 -0.0376873 -0.943627 247 249 244
3.54688 1.18359 1.42207 -0.386881 0.173874 -0.874046 157 162 167
1.68359 1.34375 1.49017 0.341911 -0.0312341 -0.938074 230 244 245
1.53975 2.22656 1.375 -0.946502 0.0163083 -0.320426 190 190 189
1.55244 1.28125 1.38026 -0.76556 -0.0223905 -0.641311 0 0 0
3.33741 1.50931 1.45131 -0.201653 -0.381976 -0.885619 58 59 63
2.18158 1.61051 1.84702 -0.309779 0.19276 -0.913435 218 227 229
1.00857 1.35888 2.29321 -0.118203 -0.0504723 -0.978868 253 250 244
0.590583 0.940665 2.48565 -0.384159 0.384277 -0.455324 0 0 0
2.14039 1.99609 1.51172 -0.729881 0.357968 0.582352 0 0 0
0.589844 0.941406 2.47804 0.214086 0.806323 0.551372 0 0 0
3.52734 1.38672 1.41692 -0.215244 -0.100772 -0.971347 179 225 243
2.53906 1.75 1.57683 0.122126 -0.18885 -0.973606 170 180 184
3.30863 1.70342 1.50387 -0.359546 -0.112161 -0.922897 143 156 165
3.55488 1.45964 1.40158 -0.324586 -0.158209 -0.930177 179 211 230
3.53255 1.39092 1.41094 -0.252135 -0.221686 -0.938532 163 222 238
0.633762 0.875 2.40072 -0.320735 0.0997364 -0.868848 114 96 101
3.28906 1.9031 1.31641 -0.0377131 -0.998691 0.0193177 73 68 65
1.04044 2.11016 2.29479 -0.221167 -0.0460385 -0.966149 241 220 208
1.05535 1.19384 2.28667 -0.327668 0.0830015 -0.93169 251 239 226
0.604479 1.01562 2.48789 -0.018804 -0.296758 -0.70672 250 240 231
2.65534 1.31383 1.69945 -0.322363 0.0521483 -0.94105 175 191 204
3.19738 1.81962 1.54379 -0.314954 0.0535444 -0.945099 143 156 164
1.27777 2.40887 1.07936 0.330309 -0.723752 -0.381847 184 164 140
2.11328 2.04688 1.87945 -0.25438 -0.033505 -0.964834 254 254 254
0.632209 0.906459 2.41546 -0.443905 0.278851 -0.774893 253 254 246
2.86896 2.40218 1.38866 -0.0422155 -0.998615 -0.0146304 115 76 48
1.44752 2.37109 1.51463 -0.87383 -0.232824 0.404703 254 254 253
3.19792 1.85156 1.54495 -0.307003 0.000261483 -0.949926 139 152 160
2.11719 2.38203 1.42188 0.0130392 -0.994001 0.000795087 243 244 244
1.45288 1.41536 1.10807 0.962765 -0.0684548 0.246595 182 178 181
1.75781 2.41586 0.898438 0.0344945 -0.998801 -0.0283834 252 175 128
2.0289 1.22017 1.88576 -0.255348 0.0323318 -0.964705 182 192 194
2.87891 1.73438 1.63989 -0.322405 0.00518436 -0.946408 163 176 184
1.01172 2.37939 2.26467 -0.00726681 -0.993952 -0.0863768 0 0 0
2.26562 2.12435 1.03125 -0.0740018 0.947785 -0.304298 254 254 253
1.82169 1.62565 1.94975 -0.285926 0.0839559 -0.953471 169 171 168
3.52734 1.37891 1.41414 -0.125931 0.171378 -0.977124 112 129 138
1.26172 1.72266 2.23926 -0.326831 0.0312808 -0.944565 251 240 226
3.76953 1.33984 1.33829 -0.604524 0.0557677 -0.794633 118 105 98
1.75788 1.44531 1.76562 0.994367 -0.0577965 0.0642474 189 194 195
2.34375 2.14026 1.07422 -0.0355482 0.982377 0.179371 255 255 255
3.10712 1.5385 1.56573 -0.30962 0.0354903 -0.944167 161 174 185
1.62891 1.34375 1.48649 -0.155496 -0.118758 -0.976796 0 0 0
3.2865 1.38743 1.48181 -0.929194 -0.10343 0.352318 122 132 141
1.3653 1.55196 2.18293 -0.372555 -0.163935 -0.891331 255 255 254
3.36428 1.67056 1.48785 -0.251376 0.075793 -0.950192 145 158 168
2.13299 1.98438 1.48438 -0.964893 0.225781 0.107622 128 128 128
1.72262 2.13876 1.64874 0.99457 0.0857819 -0.0100387 250 251 250
1.19406 1.94141 2.25391 -0.304113 0.123674 -0.944574 249 230 219
1.20557 0.983385 2.24764 -0.381727 0.018246 -0.895252 254 254 253
1.75781 2.39782 1.76562 0.0305186 -0.998047 -0.0339361 180 118 83
2.62657 2.25687 1.70595 -0.215193 -0.632049 -0.623602 228 235 243
2.63994 1.38672 1.70678 -0.289155 0.00702802 -0.956721 172 188 200
3.00198 1.62578 1.60035 -0.280184 -0.0805039 -0.954695 161 175 184
2.16348 1.9332 1.019 -0.62647 -0.527378 -0.424184 186 204 217
2.61328 2.40684 1.17969 -0.0384178 -0.998372 -0.0106576 236 155 99
1.75369 1.59375 1.79255 0.818298 0.0336272 0.573324 193 196 198
2.62141 1.35466 1.71489 -0.196189 -0.106794 -0.973866 175 192 204
2.01562 2.40829 1.31641 -0.0318946 -0.998798 -0.0296442 252 177 124
0.768115 1.95807 2.08151 0.957188 -0.0606428 -0.228057 249 231 221
2.01562 2.40737 1.35938 -0.0216736 -0.999347 0.00378215 253 178 126
0.764183 1.95703 2.06355 0.914721 -0.232658 -0.317672 234 207 197
0.711595 1.11577 2.38471 -0.782212 0.0317703 -0.101031 249 233 231
0.980469 1.09766 2.3002 -0.163029 0.290494 -0.942887 0 0 0
1.95312 2.41912 0.734375 -0.00238713 -0.998647 0.010272 238 170 113
3.01782 1.86719 1.59885 -0.303976 -0.050892 -0.948133 159 171 180
3.58203 1.49985 1.38672 -0.313379 -0.61161 -0.726448 61 62 66
0.597656 1.03288 2.46484 0.229211 -0.898787 0.373691 0 0 0
1.43359 1.91406 2.16286 -0.285784 -0.0418318 -0.897459 255 255 252
2.3125 1.89453 1.49108 0.135644 -0.531928 -0.835222 255 255 255
1.29297 1.27734 2.2249 -0.278287 -0.0196773 -0.960296 254 254 251
2.43359 2.40184 1.53906 0.0574223 -0.996491 -0.0591789 253 239 218
3.36405 1.91008 0.984375 0.116296 -0.985327 0.00989086 67 60 55
2.25 2.00293 1.35853 -0.076637 -0.854414 -0.492546 246 250 251
3.5172 1.47656 1.4106 -0.228995 -0.032474 -0.964511 94 108 132
3.57031 1.39844 1.39985 -0.198284 -0.123705 -0.963786 141 151 127
2.40625 2.40015 1.64844 -0.044931 -0.998486 -0.00956233 245 225 195
1.03906 1.96875 2.29686 -0.233672 -0.00670825 -0.965332 247 231 218
1.09875 2.32031 2.29053 -0.354554 0.165207 -0.901141 228 216 208
3.76341 1.88281 1.37174 -0.333336 0.165977 -0.919114 123 133 142
1.72363 2.16406 1.64844 0.994997 -0.0155884 -0.0368296 244 247 246
3.4367 2.16423 0.965345 -0.335668 -0.355938 -0.796364 51 34 14
1.38448 1.59542 2.16979 -0.408843 0.0619926 -0.888759 254 254 254
1.17458 2.15157 2.26326 -0.334789 0.0811022 -0.929828 235 210 207
1.75048 1.46484 1.78516 0.727059 -0.0489749 0.684825 0 0 0
3.55884 1.39989 1.40257 -0.369165 0.0234032 -0.920012 113 135 139
3.52941 1.44453 1.40828 -0.235332 -0.121 -0.952811 137 183 211
1.77263 2.18048 1.88686 -0.0363383 0.0434639 -0.994678 184 185 180
1.79068 1.20703 1.88672 0.946979 -0.202195 0.249695 155 159 159
1.02344 2.31641 2.31477 -0.111184 -0.0121397 -0.991403 238 224 217
0.746094 1.88672 2.00149 0.936349 -0.0713828 -0.343738 251 215 194
0.732372 1.73047 1.94922 0.913775 0.213143 -0.345811 206 150 143
1.79417 1.23438 1.85938 0.990432 0.00592856 -0.130255 156 158 155
0.777344 2.28906 2.13186 0.94534 -0.0658952 -0.290901 211 191 184
1.69332 2 1.51172 0.969168 0.0454511 -0.239544 242 249 249
1.01182 1.26172 2.34789 0.417746 -0.169503 0.78891 0 0 0
1.87891 2.40276 1.58594 -0.0051743 -0.999029 0.0350369 194 141 105
2.71556 2.1961 1.1044 -0.501041 -0.243367 0.809402 156 123 107
1.09551 1.35938 2.26953 -0.369785 0.0664593 -0.925135 253 254 254
1.67188 2.41579 0.882812 0.00334288 -0.998581 -0.0435492 252 181 128
3.01172 1.3125 1.597 -0.30072 -0.0706912 -0.948968 174 188 201
3.33594 1.95536 0.975249 -0.101589 0.584889 -0.756206 31 20 11
3.58984 1.38842 1.39551 -0.246513 -0.346871 -0.902493 116 127 132
2.98828 2.41245 0.851562 -0.042513 -0.99833 -0.0124888 106 65 35
3.06641 2.41498 0.777344 0.0483973 -0.99882 0.00391588 111 70 42
3.20703 1.38672 1.53465 -0.274093 -0.0345167 -0.961084 156 170 180
3.01641 2.06172 1.57224 -0.30988 0.525561 0.649944 109 116 120
2.19531 2.21094 1.86011 -0.212627 -0.0265987 -0.972891 246 250 249
0.628904 0.874219 2.41038 -0.36969 0.172914 -0.746521 0 0 0
3.28906 1.90056 1.42188 -0.00369356 -0.999263 -0.0120366 69 68 68
2.86719 2.41492 0.820312 0.0174898 -0.999098 -0.0249048 107 67 36
3.28906 1.88281 1.51731 -0.280818 -0.0868328 -0.950708 132 146 156
1.44359 2.37277 2.03984 0.0584873 -0.993737 0.0138003 252 244 237
1.44881 2.39175 1.09573 0.959777 -0.00535867 -0.275707 140 116 105
1.45628 1.44402 1.09539 0.974999 -0.00610963 0.112777 157 156 158
1.35013 1.44531 1.09183 -0.741076 0.0159002 -0.6708 127 128 128
1.62585 2.21172 1.37689 0.442189 0.0180343 -0.884841 253 254 254
3.60156 1.21875 1.40604 -0.18119 0.209537 -0.911877 87 80 84
1.28184 2.40872 1.09286 0.486293 -0.783047 -0.0848393 205 178 151
3.28138 1.23828 1.51953 -0.317006 -0.0451292 -0.947349 156 171 182
0.635358 0.903689 2.43122 -0.777471 0.514772 -0.268975 253 253 248
2.13281 2.40007 1.73438 -0.0235179 -0.999085 -0.0245768 251 201 152
2.13281 2.41635 0.761719 -0.0278045 -0.999272 0.0238738 234 152 113
3.30078 1.90491 1.22266 -0.0337834 -0.994656 -0.0975611 73 68 65
2.13746 2.40211 1.51263 0.631163 -0.767694 0.0985057 0 0 0
0.582031 1.01999 2.54297 -0.958399 -0.190846 -0.212248 255 254 254
3.28906 1.90577 1.46875 0.0914559 -0.965317 0.241205 89 92 95
2.11719 2.38237 1.4375 0.104993 -0.985524 -0.00665411 242 244 243
1.44883 2.35938 1.09441 0.962654 -0.0145911 -0.265137 151 125 115
1.45561 1.41406 1.09375 0.984534 -0.00272226 0.0422093 163 165 167
3.15625 1.90046 1.46875 0.0226056 -0.998973 0.0222221 71 67 68
1.45912 2.37291 2.06641 -0.339263 -0.937685 -0.047658 251 246 241
1.29688 2.389 1.88672 0.0168038 -0.998935 0.0241103 244 223 217
2.85322 2.42105 0.608594 -0.340875 -0.913593 0.0735045 114 73 48
0.710314 1.67312 1.88765 0.732257 -0.440744 -0.11587 32 25 24
3.40593 2.10831 0.969889 -0.320782 -0.175352 -0.927881 50 35 25
1.7588 2.33203 1.8125 0.960812 0.0511324 0.249442 168 172 167
2.91822 2.32031 1.28875 -0.950892 -0.0229434 0.307961 71 50 26
2.29297 2.02463 1.01953 -0.0822558 -0.888052 0.452326 254 254 253
3.04557 1.90511 1.54036 0.0835488 -0.966248 0.240054 83 86 89
1.33208 2.38622 2.09191 -0.328789 -0.937599 -0.11161 252 229 218
2.01562 2.24219 1.91379 -0.278593 -0.0782399 -0.950962 254 254 254
1.35008 1.42969 1.09183 -0.736483 0.0251669 -0.675596 127 127 127
2.21094 2.40772 1.40625 0.0741113 -0.99633 -0.0348741 253 178 124
3.14062 1.90157 1.42188 -0.0229485 -0.998553 0.00157292 73 68 67
1.03998 1.32982 2.28561 -0.384885 0.0722257 -0.911924 249 213 204
3.37656 1.97016 0.971392 -0.137615 0.489534 -0.852133 48 34 19
0.976562 2.39998 1.43359 -0.237159 -0.932923 0.0405615 251 172 140
0.762965 1.65588 2.07808 0.934187 0.0953514 -0.294788 247 204 186
2.87891 1.65625 1.63977 -0.320103 -0.0351155 -0.946232 161 174 182
2.83407 1.52297 1.6519 -0.300824 0.0589635 -0.9489 168 182 193
2.80859 1.6875 1.66315 -0.334702 -0.0794127 -0.937711 164 177 185
3.74867 1.88444 1.37662 -0.217634 -0.00178001 -0.969062 123 133 142
2.42188 2.41071 1.13672 -0.0177492 -0.998147 -0.0442563 239 169 114
1.011 1.2227 2.3398 0.707821 0.00930071 0.0278366 249 217 207
3.28656 1.375 1.46595 -0.653064 0.0233288 -0.512448 63 67 70
0.765625 2.38411 1.84766 -0.091965 -0.982634 -0.128912 247 172 143
2.31136 2.11327 0.981077 -0.179559 0.856411 -0.481658 254 252 247
1.17064 1.9564 2.26168 -0.355648 0.127938 -0.914847 254 253 249
0.725781 1.22046 2.36838 -0.389183 0.0287037 -0.873368 249 222 215
3.36616 1.38672 1.45786 -0.330072 -0.125332 -0.932907 44 44 42
3.28639 1.38636 1.46583 -0.659835 -0.0346584 -0.613516 59 65 67
3.30834 1.3708 1.45692 -0.198665 0.053377 -0.978241 54 55 59
1.39991 1.70391 1.07591 -0.258711 0.0371819 -0.964475 215 201 201
1.125 2.01562 2.27372 -0.180239 0.0340889 -0.977842 247 214 208
0.692417 1.20836 2.37773 -0.322471 0.162606 -0.918531 251 214 207
3.3363 1.39844 1.45662 0.316887 0.0521495 -0.945097 48 50 49
3.71172 1.29829 1.366 -0.496497 -0.0876833 -0.780696 134 111 113
2.84128 1.60938 1.65289 -0.298534 0.0580447 -0.950992 168 181 190
1.65625 1.58203 1.48599 0.264754 0.0542624 -0.962542 250 254 254
2.96053 2.40204 1.1356 0.443322 -0.795055 -0.289866 39 20 5
0.72376 2.07889 1.92938 0.931921 0.146409 -0.234144 254 254 253
2.47656 2.39893 1.61328 -0.0093848 -0.998136 0.0311323 251 219 198
1.41711 1.41797 2.17578 -0.84013 -0.117477 -0.52951 254 252 253
1.71539 1.84923 1.69139 0.70959 0.0424894 0.668225 0 0 0
1.02474 1.14444 2.36192 -0.455081 -0.363254 -0.426464 0 0 0
2.13523 1.83761 1.40625 0.455867 -0.86742 0.0617619 248 249 248
2.7391 2.1263 1.07171 0.746409 0.0159002 -0.663333 80 72 68
3.78437 1.28125 1.33067 -0.56516 0.0988398 -0.585159 137 118 119
2.64062 2.03885 1.12109 0.134204 -0.874949 0.464472 183 195 203
1.1732 1.2671 2.25368 -0.236346 -0.0531887 -0.957246 254 254 254
1.02344 1.35938 2.28945 -0.199267 0.0577069 -0.967884 251 238 232
1.40039 1.97094 2.16203 -0.210173 -0.248394 -0.909591 254 254 247
3.36567 1.375 1.45803 -0.288161 0.00679424 -0.950172 44 44 42
1.86328 2.39949 1.73828 -0.000248378 -0.997515 -0.0704472 197 147 123
2.52467 2.30391 1.73352 -0.308834 0.0313523 -0.94437 255 255 255
2.53906 1.35938 1.74172 -0.312142 -0.0148713 -0.949851 172 189 199
0.894531 2.38432 1.73828 -0.0589576 -0.994876 -0.0821301 233 174 162
1.93753 1.06922 1.91778 -0.220043 0.00783864 -0.96872 168 176 179
2.80881 1.29763 1.65244 -0.27939 -0.0642393 -0.956319 170 187 198
2.6189 1.91016 1.56641 0.854657 -0.375058 -0.359017 170 174 171
1.68606 2.30469 1.52344 0.99193 0.00721885 -0.116797 248 251 248
1.63792 2.14062 1.40841 0.935257 0.000648187 0.287304 243 247 246
1.6977 1.35792 1.52266 0.969915 0.0728981 0.224405 229 242 245
0.729611 1.97083 1.93039 0.930788 -0.02576 -0.23359 253 253 243
1.75747 1.83594 1.76562 0.986884 -0.048222 -0.086158 208 215 211
3.62891 1.38299 1.38672 -0.314791 -0.323817 -0.892216 127 121 113
2.89844 1.39844 1.62603 -0.245451 -0.0293698 -0.967504 169 186 196
3.69891 1.91016 1.15257 0.599678 -0.0308875 -0.798917 62 57 53
1.56243 2.03125 1.3555 0.256373 0.00929116 -0.964623 254 254 254
0.6986 1.08446 2.44123 -0.374549 0.594524 -0.693151 191 191 191
0.992188 2.39081 1.55469 0.0376284 -0.998346 0.0269681 242 161 131
2.23828 2.00847 0.949219 -0.371253 -0.90301 0.216204 254 254 254
1.92226 2.4099 1.24184 0.0120814 -0.998057 -0.0291325 251 173 120
3.46484 2.40105 0.980469 -0.139839 -0.966866 -0.213575 53 34 17
3.17578 1.64062 1.54822 -0.298812 -0.107638 -0.946787 155 168 177
2.42272 2.2744 1.76282 -0.358447 -0.111871 -0.892804 251 253 254
2.43556 1.29557 1.77115 -0.337485 0.0730623 -0.93547 180 197 207
2.35408 1.18099 1.79159 -0.291064 0.107902 -0.950097 182 199 209
1.29285 2.14439 2.27716 0.65651 0.613615 0.436965 252 237 228
1.30325 1.19141 2.27734 -0.733247 -0.170369 -0.658273 0 0 0
1.55078 1.85156 1.34835 -0.782464 0.00879369 -0.620706 254 254 253
1.34265 1.88281 1.11328 -0.74966 0.0864289 -0.654946 0 0 0
3.18359 2.28906 1.01657 -0.260176 -0.0165692 -0.957442 51 29 9
1.62891 1.28125 1.48551 -0.153247 -0.0599716 -0.985132 0 0 0
2.72266 2.21484 1.07106 0.526815 0.270214 -0.805885 89 74 66
1.09804 1.34146 2.26989 -0.25777 -0.0348684 -0.962202 254 253 251
0.813802 2.38416 1.79557 -0.0653422 -0.993712 -0.0731853 232 160 129
0.786067 1.95877 2.15625 0.981582 0.0920034 -0.152897 254 254 253
3.3737 1.38575 1.45548 -0.294902 -0.157373 -0.937331 44 44 42
1.34125 1.41797 2.19202 -0.424019 -0.179406 -0.88418 254 254 254
3.33837 1.38651 1.45643 0.326948 0.024592 -0.94224 48 49 49
1.3395 2.37133 0.834885 0.374523 -0.912252 0.123174 209 212 237
3.06241 1.19396 1.57472 -0.311741 -0.0569505 -0.910679 165 179 190
1.92188 2.4009 1.67969 -0.000295913 -0.997134 -0.0360509 206 154 122
2.97901 1.19396 1.60624 -0.413155 0.0913359 -0.904505 165 182 193
1.92188 2.41278 1.0625 -0.00760899 -0.999249 0.00970936 249 168 117
3.30848 1.3865 1.45696 -0.410087 -0.233409 -0.881578 55 56 60
0.694531 1.44443 2.36421 -0.193248 0.206993 -0.903644 254 245 242
3.25781 1.90544 1.17969 -0.00367089 -0.996926 -0.0576602 73 68 64
2.9984 1.359 1.59701 -0.314781 0.0401151 -0.945948 166 180 191
3.11173 2.0293 1.03645 -0.342533 0.153299 -0.923489 51 37 26
0.720281 1.72266 1.88672 0.996861 -0.00525916 -0.0789922 192 145 141
0.632926 1.01408 2.51337 -0.485558 0.0459492 -0.584175 127 125 123
2.13417 1.43047 1.85746 -0.246223 -0.0551305 -0.964945 197 208 214
1.41211 1.62744 2.15838 -0.230369 0.256415 -0.840157 255 255 253
3.39324 1.375 1.45132 -0.349373 -0.0537163 -0.926718 45 46 44
3.01172 1.58491 1.59709 -0.235319 0.0497925 -0.96786 160 174 184
2.12891 1.86162 1.32422 0.0368985 0.841246 0.539392 227 234 238
2.79688 1.34375 1.65538 -0.247432 -0.0383292 -0.966914 174 190 203
3.33759 1.37507 1.4564 0.278666 0.0186511 -0.957215 51 52 51
2.53906 2.05421 1.17578 -0.0671632 -0.992104 0.104675 199 217 229
3.39164 1.39912 1.44942 -0.25492 -0.00545646 -0.960144 45 46 44
0.761719 1.29367 2.34716 -0.26997 0.669071 -0.691882 239 243 251
1.12783 1.35922 2.26223 -0.204035 -0.00675678 -0.970598 254 252 250
1.64032 2.2757 1.48822 0.117018 0.0970453 -0.984202 253 254 254
1.65625 1.32812 1.48538 0.183408 0.0100382 -0.982468 242 249 249
1.62891 1.32812 1.48687 -0.11246 0.0369423 -0.990699 0 0 0
2.42188 2.40584 1.31641 -0.0187641 -0.998814 -0.0190381 248 166 106
1.2782 1.0994 2.22969 -0.229519 -0.158058 -0.955123 254 244 241
1.71727 1.2487 1.66145 0.808846 -0.0819772 0.555559 79 81 82
1.10156 1.31641 2.26878 -0.168262 -0.137485 -0.969902 254 251 243
2.73047 2.33203 1.66936 -0.351073 0.217977 -0.910623 193 196 201
2.75 1.35938 1.6713 -0.29706 0.00938574 -0.953563 173 189 202
3.63281 1.38672 1.38217 -0.261028 -0.195172 -0.929567 120 118 108
1.44551 2.40434 1.07645 0.666796 -0.519559 -0.181706 140 103 84
1.45217 1.42839 1.07943 0.967183 0.00949905 -0.252358 148 158 166
2.23828 2.4145 0.917969 -0.0610355 -0.99788 0.0226029 249 170 120
1.58039 1.32812 1.37025 0.207203 -0.0317596 -0.976143 255 255 255
2.42109 1.79104 1.55303 0.0825863 -0.264359 -0.959766 183 195 202
3.64922 1.38588 1.37923 -0.0721746 -0.0232242 -0.989246 115 123 123
1.89232 2.41045 1.19692 0.00517252 -0.997958 -0.0552248 245 159 115
3.7617 1.90233 1.24613 0.145597 -0.983998 -0.102682 62 57 56
1.11328 1.34375 2.26708 -0.25154 0.025024 -0.953477 254 254 254
0.747792 1.80469 2.00781 0.934058 -0.112993 -0.309962 219 165 159
2.58294 1.49219 1.73077 -0.31053 0.00362354 -0.949351 165 179 190
3.91016 1.90234 1.32375 0.0771865 -0.114788 -0.990387 112 124 130
1.54465 1.85156 1.35658 -0.784799 -0.0033633 -0.616958 0 0 0
1.10286 1.34505 2.26759 -0.212879 -0.119975 -0.967374 254 254 254
3.63449 1.39973 1.38035 -0.150128 -0.0415923 -0.983772 186 183 104
1.80494 2.30469 1.92969 0.959995 0.0597593 -0.265871 177 179 179
3.08984 2.34375 1.04094 -0.321763 0.0750479 -0.94373 53 33 12
1.82422 1.35547 1.93811 -0.229611 -0.0405317 -0.972438 157 160 158
2.44507 2.01843 1.37342 0.0683733 -0.864197 -0.497247 254 254 254
2.32762 2.0426 1.28771 0.08146 -0.958163 -0.272525 216 228 235
1.11284 1.2682 2.26969 -0.233167 -0.000966568 -0.971366 254 254 253
1.68417 1.29917 1.60536 -0.078449 0.00984591 -0.996175 0 0 0
3.01172 1.34766 1.59421 -0.368766 -0.0751226 -0.926482 168 182 195
1.39802 1.59282 2.16738 -0.117454 -0.151704 -0.962932 254 254 253
2.74268 2.03125 1.08203 0.714217 0.0958217 -0.668329 83 80 77
3.3922 1.38607 1.44979 -0.36392 -0.195355 -0.904462 46 46 45
3.64844 1.90694 1.16406 0.0234713 -0.956506 -0.212179 68 62 57
1.68265 1.6875 1.49655 0.459261 0.0121732 -0.887507 242 250 252
2.31382 2.41801 0.686933 0.00291142 -0.999344 0.0279514 195 146 114
2.18386 2.10907 1.13698 -0.883145 0.404707 -0.214528 245 245 244
1.59375 1.57031 1.3666 0.275289 -0.0266255 -0.960311 255 255 255
1.12645 1.32719 2.26208 -0.182854 -0.0787932 -0.964632 253 250 246
2.93384 2.19531 1.34346 -0.957305 -0.0155475 0.287806 62 53 47
2.29741 1.19531 1.80877 -0.333944 -0.0181579 -0.939727 184 200 211
1.164 1.34766 2.25391 -0.125571 -0.130454 -0.98347 253 254 253
0.890491 2.37904 2.05469 0.139163 -0.985983 0.0656975 251 177 148
2.52498 2.23846 1.76204 -0.237259 -0.191657 -0.920897 224 232 235
1.87755 1.57031 1.93334 -0.214385 -0.0393717 -0.973693 192 194 191
2.1539 1.92336 1.07812 -0.856047 0.506175 0.0868295 114 120 123
1.74219 2.40038 1.61719 0.0333951 -0.998707 0.0135049 213 153 107
1.74609 2.41797 0.678934 -0.0821104 -0.988064 -0.13034 0 0 0
3.73828 1.24844 1.34815 -0.0855357 -0.226654 -0.89282 136 120 120
0.761719 1.28516 2.34439 -0.482803 0.054402 -0.874037 243 247 254
1.12598 1.34342 2.26207 -0.367978 -0.0737485 -0.914145 253 254 253
2.39062 2.41262 0.953125 -0.00640109 -0.999888 -0.00479239 235 158 106
1.40234 1.44531 1.06837 -0.295408 -0.0587473 -0.951674 211 214 231
1.34479 2.04688 1.11328 -0.856711 0.0158976 -0.515089 217 202 202
0.660156 1.37891 2.37488 -0.290633 0.260862 -0.920589 248 197 203
1.11463 1.56861 2.27004 -0.254446 0.0722538 -0.950414 253 253 249
2.375 2.41281 0.941406 -0.00977664 -0.999797 0.00474361 248 174 117
1.38265 1.44531 1.07413 -0.267102 -0.0133333 -0.962756 224 230 246
2.28125 1.21875 1.81435 -0.271436 -0.0170407 -0.959987 184 198 209
0.991634 1.0866 2.29053 0.168638 0.268092 -0.906346 73 73 69
1.38281 2.37611 2.05469 -0.0966261 -0.99001 0.00290856 252 229 220
1.39453 1.41406 1.07068 -0.272129 -0.00554736 -0.961982 202 208 226
2.70312 2.40618 1.14844 -0.00852721 -0.999607 0.000365401 222 137 78
1.63704 1.85129 1.40826 0.909374 0.000483199 0.393815 241 249 249
1.38296 1.41406 1.07425 -0.283365 -0.0444666 -0.957399 232 238 252
1.79099 1.29818 1.89714 0.887166 -0.0137215 0.452149 53 54 53
3.01871 1.34356 1.59066 -0.327093 -0.11264 -0.934936 170 184 197
1.83594 2.26172 1.93651 -0.25397 -0.0955329 -0.959933 227 230 234
1.8489 1.28125 1.93223 -0.242246 -0.00511333 -0.968226 159 162 159
2.44531 2.41665 0.773438 0.0307709 -0.995896 -0.0729292 168 118 89
1.39453 1.42969 1.07035 -0.276917 -0.0355758 -0.96015 216 221 238
1.36847 2.37955 2.03837 -0.199658 -0.970402 -0.0876309 251 232 223
3.5 2.40335 0.966126 -0.104869 -0.945028 -0.246842 0 0 0
1.36911 2.35736 1.09515 -0.133434 -0.652477 -0.604784 254 254 254
2.48047 1.99609 1.41442 0.139668 -0.820666 -0.554076 204 216 220
2.98868 1.95703 1.52313 -0.902601 -0.00708187 0.428588 0 0 0
3.35026 1.90505 1.17839 -0.0140009 -0.998353 -0.0252909 74 68 64
3.69922 1.6875 1.38196 -0.224833 -0.0401108 -0.961597 132 142 151
3.28906 1.83594 1.51625 -0.327436 0.0984624 -0.93625 139 152 161
2.99038 1.21745 1.60708 -0.254521 0.101552 -0.950726 166 183 193
3.76452 1.38766 1.33994 -0.1314 0.188857 -0.971208 128 119 107
2.68895 1.85249 1.32734 0.399544 -0.891223 -0.164413 132 144 153
3.46484 1.37109 1.43146 -0.188359 -0.232539 -0.954173 180 182 183
2.01562 2.40427 1.55469 -0.00142139 -0.999784 -0.00822597 183 139 112
2.92578 1.65234 1.62414 -0.281975 -0.0479267 -0.958224 157 171 179
2.53385 1.49219 1.74554 -0.345718 -0.0676655 -0.935775 168 184 194
2.48047 2.29297 1.74019 -0.293412 0.0464307 -0.954858 253 255 255
2.56978 1.21875 1.72245 -0.296215 0.00924828 -0.9531 177 194 206
1.41194 1.44443 1.06572 -0.281538 -0.00666974 -0.958386 210 213 230
1.6266 2.24219 1.37739 0.481143 -0.0446659 -0.863507 253 254 254
2.70312 1.94401 1.14718 -0.671476 0.599299 0.426811 51 56 57
2.50781 2.40093 1.53906 -0.0341693 -0.995246 -0.076915 218 171 140
1.62627 2.24359 1.48789 -0.0484292 -0.052202 -0.993807 203 203 203
1.44141 1.34375 1.1398 0.730402 -0.0519676 0.681005 0 0 0
1.64062 1.26562 1.48445 0.12379 -0.0543829 -0.979067 251 252 252
3.03125 1.34375 1.58647 -0.330032 -0.00533178 -0.943033 169 183 195
3.25781 1.95703 0.984516 -0.236034 -0.103335 -0.956423 49 33 18
1.41786 1.7697 2.15982 0.0424192 0.621425 -0.778306 253 248 247
1.61033 1.32812 1.37831 0.302422 -0.0288718 -0.951412 254 254 254
3.66303 1.68694 1.39433 -0.254438 0.0139508 -0.954009 131 141 149
2.28125 1.58203 1.53874 0.197561 -0.132241 -0.968065 179 194 201
1.12341 2.39472 1.4703 0.0430269 -0.996978 0.0163095 252 174 143
0.991841 1.22017 2.28601 0.274978 0.0502617 -0.935298 0 0 0
0.72536 0.907365 2.36396 -0.0421578 0.124365 -0.957848 252 234 236
1.41406 2.37758 1.99219 -0.0523129 -0.995278 -0.051833 253 232 219
1.83574 1.98438 1.95698 -0.25175 0.00259774 -0.965654 183 184 179
2.94531 1.65625 1.61778 -0.351908 0.00876876 -0.930658 159 173 181
0.711001 1.94487 1.88794 0.364046 -0.0627386 -0.179492 138 125 114
1.41406 2.37652 2.00781 -0.0602898 -0.988196 -0.0584405 250 229 218
1.42969 1.41406 1.06099 -0.27498 0.0144952 -0.959421 209 215 232
2.89844 2.40771 1 0.000852386 -0.999517 -0.0228577 102 61 31
1.89255 1.70391 1.93576 -0.238185 -0.00900562 -0.967459 221 222 217
0.761626 1.441 2.34763 -0.194892 0.774148 -0.598243 222 225 236
2.14844 1.57422 1.51541 0.0477126 -0.485753 -0.871645 201 220 230
1.64193 1.34375 1.42188 0.961935 0.053409 0.248274 240 250 251
2.76562 2.40832 0.984375 -0.00509185 -0.99841 -0.0328629 114 68 34
2.14844 2.38139 1.27344 0.253085 -0.946595 0.0667448 243 241 237
1.80859 1.625 1.95344 -0.428759 0.0763142 -0.899246 166 168 165
2.82438 1.17592 1.6523 -0.191707 0.195346 -0.961646 173 190 201
3.73191 1.37109 1.35547 -0.346119 -0.293558 -0.891081 122 101 94
0.785545 1.63989 2.17153 0.972815 -0.0899724 -0.195106 249 218 198
2.36041 2.40223 1.60303 0.00978349 -0.99884 -0.0193167 252 191 148
1.17148 1.3435 2.25318 -0.19652 -0.0648576 -0.972807 254 254 253
1.42969 2.04688 1.07628 -0.243612 0.00990166 -0.96962 223 189 188
1.63832 1.73438 1.39062 0.984769 0.00708257 -0.168068 235 243 243
