ply
format ascii 1.0
comment web version (ASCII)
element vertex 1324
property float x
property float y
property float z
property uchar red
property uchar green
property uchar blue
end_header
2.06679 -0.0490425 1.29438 50 38 38
1.05936 -0.468717 1.32621 91 65 50
0.321397 -0.566516 1.26599 90 58 41
0.176335 0.420301 0.770745 89 67 41
-0.813671 -0.540226 0.950886 79 43 21
1.10118 -0.436938 1.31708 29 12 4
1.00283 -0.397061 1.28705 87 66 44
1.13216 -0.879528 1.51979 100 76 66
0.565182 -0.699452 1.33616 95 66 51
0.918981 -0.733869 1.38934 118 86 74
1.1091 -0.405556 1.29873 32 13 2
0.225655 -0.659058 1.26394 64 33 16
1.12454 -0.404704 1.29943 116 89 68
-1.05161 -0.674557 0.76322 255 246 236
1.13547 -0.474691 1.33114 95 71 48
-0.170679 -0.0862892 0.681015 63 63 65
1.15483 -0.466571 1.32902 94 67 47
0.0759719 0.565144 0.772495 18 3 0
-0.666193 -0.509879 0.963985 30 6 0
1.23729 -0.460386 1.34224 104 78 52
0.175756 0.234448 0.72126 15 1 0
1.25276 -0.401999 1.31518 48 26 12
0.42714 -0.43135 1.2307 100 69 46
1.29338 -0.464928 1.33989 96 74 60
0.635285 -0.808545 1.20639 229 220 203
1.16405 0.0460438 0.790253 38 35 30
1.38797 -0.873627 1.58075 92 72 64
-0.177699 -0.0998832 0.668882 83 85 84
1.34261 -0.414464 1.33059 105 82 64
-0.0711161 0.356501 0.610693 141 141 124
-0.500624 0.231154 0.546651 252 223 166
1.40807 -0.857145 1.57366 96 76 69
-0.00196306 -0.464143 1.15514 93 65 44
-0.178579 -0.140885 0.66126 87 85 86
-0.337723 -0.109163 0.625948 19 11 9
1.74756 -0.503617 3.00695 53 32 19
-0.362876 -0.787444 1.1457 117 89 75
2.01644 1.34022 1.86571 197 163 128
1.4103 -0.560813 1.40332 94 80 77
0.139326 0.953097 1.09987 80 68 52
1.20694 -0.411144 1.31296 121 96 77
1.47923 -0.266992 1.22675 174 143 78
0.0053278 0.378674 0.631866 122 121 111
1.5969 -0.200603 1.19627 169 139 77
1.92192 1.00314 2.27497 192 159 118
2.0806 1.09353 1.72018 165 131 94
1.85107 1.21101 1.9128 72 59 51
0.128561 0.493444 0.770584 94 72 48
-0.271133 -0.473069 1.07433 88 60 43
1.68858 -0.136844 1.17438 75 48 18
-0.0745142 0.602012 0.69296 155 152 138
-0.689433 0.410516 0.664088 132 111 91
1.97518 0.893685 2.02883 146 116 82
-0.174564 0.327563 0.60008 96 92 83
2.0345 1.16215 1.77247 188 145 103
1.97574 1.06152 2.02468 54 37 19
1.98253 1.09067 2.01775 79 65 51
1.66745 0.0945532 1.057 106 74 54
1.57578 -0.817393 1.61166 122 100 85
1.69038 0.0633793 1.02863 49 34 23
2.05071 0.44699 0.951626 156 127 61
1.90699 -0.200851 1.33786 72 66 68
2.1591 0.512005 0.969579 141 111 61
-0.337712 -0.46467 0.378372 73 57 45
2.07329 1.17363 1.76763 142 113 87
1.97396 0.909277 2.05606 102 66 40
2.07417 -0.582346 1.72196 80 64 51
1.12504 0.847818 1.59536 181 151 127
1.91552 0.13231 1.06333 178 147 64
1.93684 0.116948 1.07123 177 139 69
1.92502 0.215274 1.0311 121 84 57
1.90681 0.109951 1.07968 71 40 17
2.11695 0.642512 1.42495 108 83 53
2.00184 0.306278 0.997685 170 140 69
0.169356 1.0009 0.85719 123 117 85
2.2056 -0.329962 1.57013 117 107 96
0.445861 -0.624859 1.28963 58 29 13
1.41947 -0.863326 1.57696 128 105 97
2.13088 0.630456 1.38055 91 62 32
-0.672076 0.438194 0.666475 79 53 30
0.664634 0.562098 0.855999 74 49 29
2.02607 0.279263 1.01969 174 141 71
0.699069 0.324856 0.957868 26 25 23
2.28724 -0.0649246 1.29869 167 154 138
2.16027 0.767635 1.30364 153 115 78
2.13313 0.627419 0.898892 179 150 88
0.874532 0.635424 0.922405 72 71 69
0.647881 -0.530973 1.30473 63 40 22
-0.223793 0.513207 0.710252 133 128 125
0.720694 0.110699 0.828138 159 128 97
2.1646 0.555774 0.943045 154 126 71
-0.923037 -0.825931 0.591669 60 56 46
0.776132 -0.440482 1.28535 63 42 28
-0.899024 -0.835235 0.63693 68 64 55
0.0162515 0.515417 0.71221 19 4 0
0.609054 -0.565241 1.306 41 24 8
1.14799 -0.506972 1.3429 96 68 46
-0.81704 -0.468591 0.91249 101 72 58
-0.0827244 -0.600319 1.15228 86 66 57
-0.193912 0.52281 0.681328 253 240 195
-0.75935 -0.433096 0.916309 49 20 6
-0.402239 -0.12791 0.677019 42 35 42
-0.565575 0.221189 0.541405 159 117 75
-0.317902 -0.0842541 0.627978 17 16 14
1.19905 0.0213679 0.809161 72 68 59
-0.753807 -0.449198 0.923555 50 22 11
-0.752409 -0.537197 0.948595 57 26 6
-0.75025 -0.561665 0.951733 75 44 26
-0.74426 -0.524711 0.951053 56 25 6
1.77487 1.1964 2.33377 137 116 100
-0.778838 -0.896749 1.03397 85 52 37
-0.646013 -0.783679 0.996252 115 77 56
-0.70919 -0.518706 0.961561 90 59 39
-0.0517948 -0.526647 1.14962 39 15 13
-0.705481 -0.50938 0.963045 50 19 1
0.996863 0.245142 0.976706 236 229 211
1.54661 0.166103 1.07611 189 155 107
-0.685305 -0.498079 0.968783 31 7 0
-0.678053 -0.481427 0.968087 43 14 0
2.1212 0.37654 1.03891 105 70 50
-0.690512 -0.838579 0.99487 88 57 36
1.89874 0.0875393 1.0804 191 156 78
-0.622977 -0.436495 0.980649 35 7 0
1.74569 -0.181114 1.26707 115 89 67
-0.625447 0.153083 0.683352 47 20 1
-0.612712 -0.454067 0.988895 38 8 0
1.90516 1.24297 1.88948 125 106 92
-0.594696 -0.864803 1.04654 119 83 62
0.0287848 0.105761 0.621407 11 10 6
1.20596 0.605257 1.20662 233 226 207
-0.314544 -0.435411 0.429929 24 13 7
0.649125 -0.482994 1.28405 60 37 23
-0.545087 -0.742256 1.01379 56 24 4
2.22358 0.933082 0.896062 146 120 102
-0.355448 -0.102184 0.638271 158 154 144
-0.340348 0.00554114 0.619333 26 21 28
0.0672962 -0.434144 1.17448 109 80 63
-0.322441 0.541563 0.744359 9 2 0
-0.747455 -0.75205 0.958042 133 97 74
-0.263339 -0.119817 0.632337 87 88 90
-0.813671 -0.540226 0.950886 79 43 21
-0.242086 -0.087552 0.646157 11 11 11
-1.04041 -0.315366 0.330223 255 251 239
0.293649 1.03797 0.998172 184 166 120
-0.213489 -0.0887235 0.653075 55 55 55
0.162773 0.146771 0.756667 80 58 34
-0.108812 -0.399572 1.12785 56 32 20
-0.185656 -0.118481 0.661235 22 22 24
-0.562642 0.190148 0.553655 105 70 32
1.44801 -0.2614 1.22146 165 134 79
0.707294 -0.643777 1.35958 88 61 42
1.44598 -0.283765 1.24345 37 9 0
-0.0115662 -0.529849 1.15973 88 59 45
0.616219 -0.480923 1.28375 131 104 79
1.39077 -0.286916 1.24454 96 67 48
0.642679 0.572527 0.859157 22 3 0
1.45602 -0.817427 1.55853 91 69 60
1.39257 -0.560941 1.40383 62 52 52
2.12064 0.526432 0.924036 155 125 71
1.22568 -0.0767888 0.83165 70 63 57
0.827465 0.371597 0.992781 35 35 33
1.30134 -0.430662 1.33005 124 100 74
-0.0790503 -0.576714 1.14906 106 74 51
1.33333 -0.732758 1.50933 105 91 83
1.31626 -0.857774 1.54716 132 104 92
1.3064 -0.863904 1.55124 96 73 65
-1.10558 -1.13735 1.05964 179 172 152
1.84423 -0.129501 1.25905 83 72 71
1.304 -0.882699 1.56816 134 110 98
1.30125 -0.893196 1.56835 113 90 82
-0.0420566 -0.00250086 1.05485 29 30 22
1.2418 -0.513593 1.3593 92 79 70
-0.0205193 0.0736157 0.625595 2 1 0
1.2362 -0.503129 1.35564 69 56 56
0.585978 0.503999 0.867379 30 16 8
0.984339 -0.496065 1.33114 129 102 81
1.20922 -0.398539 1.30709 51 29 11
0.958726 -0.406677 1.28637 82 62 45
1.24876 -0.896926 1.55446 102 79 71
1.18894 -0.415636 1.31351 116 91 71
1.21935 -0.846117 1.5193 130 103 92
-0.124583 -0.589169 1.1407 48 28 17
0.909206 -0.478588 1.31722 123 97 76
1.4836 0.186062 1.05106 56 33 7
1.16063 -0.45249 1.32791 36 21 8
1.10025 0.620959 1.02409 45 46 51
-0.33717 0.705633 0.815516 26 20 20
0.227131 -0.468377 1.22365 67 38 25
0.96109 -0.0605433 0.681014 145 111 83
0.0334104 0.338084 0.700226 15 6 0
1.1087 0.503076 1.11625 38 43 47
1.14452 -0.458146 1.32809 43 24 9
0.546768 0.21831 0.869478 11 6 2
1.13134 -0.45625 1.32561 109 84 64
1.12119 -0.366868 1.27966 129 105 79
1.23394 -0.0606936 0.831512 63 59 48
0.750004 -0.473522 1.29426 104 79 59
1.08346 0.519589 1.08872 85 90 94
1.10265 -0.453331 1.32501 37 18 4
2.15283 0.626694 0.893639 67 38 13
1.59329 -0.841168 1.62402 82 67 61
1.10052 -0.47152 1.3297 27 10 1
1.07948 -0.44017 1.31495 39 12 2
0.402014 0.153063 0.973053 33 20 11
1.07752 -0.525098 1.34543 75 52 44
0.366836 -0.686751 1.29497 53 24 10
0.464829 1.01081 0.571927 169 136 94
1.06985 -0.445062 1.31347 121 96 74
1.01603 0.554835 1.02071 78 78 78
-0.143631 0.450795 0.648145 137 128 123
0.243651 0.382617 0.782167 47 29 7
0.969527 -0.0905312 0.675463 189 148 108
1.03808 -0.453518 1.31968 66 44 31
0.416217 0.113722 0.830924 33 20 11
1.03974 -0.550829 1.35392 91 77 68
-0.641483 -0.785725 0.987907 115 77 56
0.480529 0.383483 0.792074 27 9 0
-0.140899 -0.539204 1.13061 80 56 44
0.522659 -0.472061 1.27525 101 81 66
1.0006 -0.47093 1.32465 37 15 7
-0.601675 -0.717965 0.996956 107 70 49
0.994308 -0.490312 1.33226 43 21 10
1.55298 -0.345519 1.32495 97 84 80
0.202372 0.454817 0.796663 37 20 7
0.982387 -0.448518 1.31127 123 95 74
1.00623 0.380721 1.03524 64 65 67
0.935798 0.402121 0.952694 177 164 141
0.411288 0.367831 0.866523 123 98 85
2.06715 0.7163 1.55889 82 52 26
0.9693 -0.867372 1.48113 110 84 70
0.946221 -0.1316 0.666159 209 168 126
1.61455 -0.815375 1.61552 78 65 59
0.799689 -0.483252 1.30692 88 68 47
0.936939 -0.507175 1.33252 108 85 62
0.135033 -0.551562 1.2158 52 25 13
0.930363 -0.497448 1.32878 45 23 9
0.117999 0.261842 0.707599 117 96 67
0.926049 -0.483311 1.31918 97 72 52
1.523 -0.208403 1.20493 51 36 22
-0.547348 0.280703 0.55526 98 70 42
0.892878 0.523947 0.981174 86 86 88
1.64435 -0.111413 1.16397 103 76 55
0.913584 0.451981 1.00771 79 79 77
0.920496 -0.702439 1.40651 76 64 64
0.262707 0.378198 0.803085 9 1 0
0.89827 -0.464452 1.31032 125 100 75
-1.0486 -0.811947 0.544587 11 6 13
0.899707 -0.517248 1.33168 112 85 64
0.852172 -0.544978 1.33064 107 80 58
0.128276 0.493349 0.770813 94 72 48
0.836194 -0.474142 1.30704 48 29 15
1.25162 -0.0375879 0.835046 25 21 12
-0.221062 0.492843 0.688386 9 8 5
0.300339 0.477464 0.8172 92 74 57
0.835411 -0.547532 1.33154 115 89 66
-0.522548 0.21118 0.580596 82 51 21
0.812634 0.355773 0.996854 62 62 64
0.239018 0.574349 0.883708 60 46 27
0.823354 -0.539084 1.33395 34 13 0
0.64906 0.110789 0.848891 122 92 66
1.96526 1.15108 1.78105 92 74 62
0.799303 -0.514057 1.31955 106 85 62
1.73171 0.765214 2.21112 131 103 82
-0.152117 -0.510495 1.11898 55 27 15
-0.201933 0.337902 0.616795 8 4 3
0.378346 0.632325 0.876049 92 72 49
-0.0517795 0.583872 0.68453 18 15 10
-0.0212222 -0.431122 1.15068 50 22 11
-0.171417 -0.509151 1.10615 104 75 60
1.27861 -0.889197 1.55986 110 87 79
1.70098 -0.120442 1.16433 129 98 54
1.13341 -0.135398 0.809848 86 59 35
1.46054 -0.245661 1.20841 176 147 75
1.57086 -0.188782 1.18488 178 149 82
1.16816 -0.822419 1.50158 111 86 74
-0.0743169 0.449437 0.63337 10 7 3
1.40515 -0.830588 1.56182 99 75 65
-0.100101 0.553082 0.668759 102 86 73
-0.239789 -0.546489 1.09636 52 33 29
-0.0525223 -0.600962 1.1629 109 74 53
-0.242043 -0.466441 1.07769 47 24 10
-0.0991364 0.236967 0.601821 1 1 0
-0.244823 -0.477607 1.07825 97 70 53
0.0842795 0.166649 0.843928 68 54 41
-0.252789 -0.538474 1.08876 53 32 28
1.0172 -0.0910314 0.706554 152 119 86
0.362831 -0.502908 1.2482 96 71 50
0.789913 -0.545352 1.33448 59 32 11
1.5574 -0.79534 1.57782 84 61 52
-0.087353 0.131063 0.608426 1 1 0
0.778806 -0.499127 1.31175 47 29 11
-0.158867 0.239735 0.607326 2 1 1
0.778351 -0.541003 1.3298 107 81 58
1.19732 -0.0496567 0.825072 22 17 11
1.09636 0.716323 1.02195 132 134 133
0.774234 -0.478354 1.30181 40 17 0
1.01861 -0.481247 1.327 139 113 88
0.753938 -0.832937 1.42117 132 102 91
0.723969 0.0439298 0.791478 173 139 109
-0.446819 -0.535531 0.288189 67 57 47
0.741193 -0.556407 1.3307 39 17 3
-0.150142 0.3583 0.621034 8 4 4
0.712425 0.519647 0.831393 16 2 2
-0.897265 -0.799511 0.705528 72 69 62
0.691581 -0.267813 -0.0785271 63 34 18
1.27849 -0.493443 1.34924 86 74 70
0.728281 -0.527917 1.31451 104 79 57
0.689236 -0.16167 0.0163818 31 14 6
1.16346 -0.402688 1.31139 61 36 15
-0.121378 -0.45495 1.05097 88 55 36
0.692016 -0.52752 1.30618 74 44 23
0.406542 0.415928 0.812805 23 10 3
0.676175 0.61635 0.855829 187 169 144
-0.109761 0.304168 0.596587 3 1 1
0.686198 -0.809865 1.39904 117 90 79
0.498409 -0.556265 1.28395 63 37 15
0.792722 -0.761432 1.39895 74 43 25
0.794763 -0.522175 1.3217 72 44 26
0.664725 -0.518239 1.30123 37 17 6
0.319792 0.957611 0.775542 165 146 95
0.656097 -0.527458 1.30568 111 89 68
0.654715 -0.782192 1.38684 110 84 73
0.349599 0.901019 0.593803 184 174 162
0.236212 1.11595 1.21984 56 37 24
0.651018 -0.492889 1.28781 79 57 35
0.258183 0.399098 0.802447 83 62 45
0.643404 -0.585461 1.31666 91 66 43
0.638095 -0.778643 1.38413 112 84 73
0.485903 -0.711725 1.32611 69 37 26
0.638967 -0.747706 1.35997 66 43 29
1.95499 0.723929 2.05397 71 50 30
0.626026 -0.590179 1.31015 105 79 56
0.806948 -0.550628 1.33236 104 73 44
0.180696 0.107553 0.82447 116 89 54
0.623725 -0.475746 1.28569 48 22 3
0.248052 0.4049 0.789637 77 56 35
0.622405 0.551855 0.859697 22 1 0
1.58851 1.15913 1.76888 194 157 97
0.601247 0.52453 0.868182 20 2 0
0.591018 -0.548963 1.30069 89 64 42
-0.897276 -0.83609 0.648059 36 32 20
0.59071 -0.497995 1.28991 44 20 8
2.04872 0.30174 1.0136 150 118 62
0.574882 -0.773504 1.36137 115 83 70
1.70315 -0.786298 1.64665 129 103 90
-6.19949 -3.605 15.7305 192 179 155
0.575345 -0.552546 1.29827 111 85 63
0.582382 0.388349 0.887318 13 2 0
1.39917 0.165982 1.01573 124 92 71
0.0316934 -0.565337 1.18315 44 15 1
0.572771 0.265128 0.859891 84 69 46
0.561676 -0.570533 1.30114 38 14 2
1.68749 -0.489763 1.44177 61 55 57
-0.371803 0.559992 0.780214 31 27 26
0.560007 0.422078 0.867655 40 22 8
-0.566997 0.255176 0.531921 117 77 35
0.54458 -0.563973 1.29359 42 15 1
0.128813 0.376714 0.707952 42 21 1
0.539393 -0.547012 1.29769 43 18 4
0.527147 -0.545675 1.29047 117 92 70
1.74782 0.829794 2.30031 118 88 63
0.51601 -0.467225 1.27344 46 23 9
1.69768 -0.131196 1.16834 71 41 12
0.491825 -0.493427 1.27529 45 22 6
-0.238249 0.155895 0.607672 92 85 77
0.496379 0.240051 0.841537 23 6 0
0.0189936 0.114099 0.617621 4 3 1
-0.0459546 0.236293 0.597121 12 8 5
0.476562 0.262451 0.826831 19 4 1
0.364913 0.267371 0.830244 13 1 0
0.430885 -0.591457 1.27146 58 25 6
0.597809 -0.450707 1.27305 105 80 57
1.164 -0.443617 1.3297 99 76 62
0.42959 -0.504149 1.2665 53 26 6
0.586347 0.133485 0.888699 83 63 39
1.06068 0.455188 1.10001 80 85 88
-0.660501 0.214334 0.551011 189 148 105
0.408273 -0.468613 1.25834 103 71 48
0.878046 -0.846764 1.45285 67 51 51
1.93251 0.798558 2.03106 111 78 46
0.402256 -0.715374 1.30847 102 68 49
0.548575 0.278898 0.881811 20 7 0
-0.168886 -0.485613 1.10401 75 48 36
0.395325 -0.487227 1.25041 89 57 34
0.619952 0.0320602 0.84996 129 104 82
0.381501 -0.621926 1.28542 79 50 34
0.936416 1.03199 1.09984 237 229 214
0.410704 0.21895 0.810083 22 3 0
1.25406 -0.908248 1.55718 134 108 101
0.405216 0.222603 0.803194 126 110 84
1.854 0.979975 2.28678 72 54 34
-0.32844 0.516275 0.750384 13 10 10
0.390822 0.334795 0.815665 81 66 45
1.32753 1.10299 1.51074 234 228 210
0.393404 0.371129 0.808436 10 0 0
0.725343 -0.267028 -1.1958 207 196 182
0.394305 0.387475 0.812335 93 76 50
1.78714 1.23291 1.93736 72 60 51
0.18349 0.184924 0.749879 38 21 5
0.356779 0.272517 0.823568 54 38 23
-0.69089 0.21362 0.552558 184 152 109
0.670007 -0.45372 1.2799 128 105 80
2.04062 -0.107698 1.3191 85 74 70
0.30416 -0.681137 1.28881 86 59 42
0.620326 -0.613767 1.34238 97 75 54
0.149158 0.459536 0.776228 67 46 25
0.337769 0.500595 0.803888 106 88 64
-0.0895578 0.290655 0.594853 5 4 0
1.9379 0.770916 2.07638 115 81 56
0.184758 0.333337 0.752377 15 0 0
0.315642 0.406554 0.789922 27 13 3
0.234686 -0.547685 1.24488 49 22 10
1.95446 0.705557 2.12041 153 124 95
0.22439 -0.529897 1.23326 73 40 23
2.07444 0.55921 0.914501 125 90 68
0.202954 -0.571465 1.24719 72 41 23
0.725305 -0.558824 1.32944 38 19 10
0.790809 -0.68074 1.36132 50 30 23
0.244684 0.292433 0.806725 58 41 25
-0.10761 0.260528 0.606406 72 72 64
2.14794 0.836428 0.885928 155 122 95
0.174515 -0.677613 1.24118 110 80 68
0.49022 0.384664 0.790104 83 62 33
0.537783 0.901471 0.670464 44 30 10
0.228321 0.303228 0.78968 92 75 56
0.4994 -0.539925 1.28145 45 18 0
0.202725 0.343033 0.757988 15 2 1
0.125255 -0.518003 1.20624 92 63 48
0.0398715 -0.589711 1.18805 89 62 50
0.117445 -0.597213 1.2193 107 75 57
0.636985 -0.00458939 0.870673 96 68 48
0.173718 0.209419 0.726436 26 8 2
0.444716 -0.496832 1.27207 122 92 68
0.339931 0.304509 0.84858 70 55 33
2.04871 0.665845 1.67826 87 68 45
0.492318 -0.639695 1.30351 82 56 43
-1.1222 -1.08075 1.03077 166 157 132
-1.08651 -0.411257 0.514593 51 49 37
-0.753807 -0.449198 0.923555 50 22 11
-0.734021 -0.448376 0.91807 87 56 36
0.153553 -0.660967 1.24058 91 63 48
-0.69168 -0.473955 0.96449 89 59 38
-0.289085 -0.531196 1.0728 117 83 58
-0.678333 -0.481126 0.968752 43 14 0
0.650513 -0.0247906 0.841195 155 122 91
-6.75735 -11.0388 17.8077 198 164 116
-0.622625 -0.436345 0.980793 35 7 0
0.789279 -0.597581 1.35279 91 64 43
0.327518 0.179624 0.935661 55 43 28
-0.340348 0.00554114 0.619333 26 21 28
-0.263339 -0.119817 0.632337 87 88 90
-0.773145 -0.570013 0.948073 47 15 0
-0.17802 -0.0984008 0.676145 72 72 75
2.09287 0.495272 0.936698 161 129 68
-0.0221987 -0.522746 1.1588 45 15 4
-0.244983 -0.477905 1.07884 97 70 53
2.0733 -0.2934 1.47848 93 71 48
0.949724 -0.577985 2.25334 135 103 75
-0.632405 -0.445598 0.979592 40 8 0
-0.340848 -0.525927 1.07958 83 61 47
0.00765616 -0.614266 1.18629 85 58 47
-0.0816853 0.326278 0.604361 13 10 9
0.142648 0.287745 0.686109 25 5 0
-0.0237257 0.623116 0.698287 76 73 66
-0.049157 0.128887 0.606998 2 2 2
0.0507783 -0.590587 1.19543 85 58 47
0.0463166 -0.415481 1.30573 111 78 59
0.15791 0.194603 0.734007 111 87 56
0.173718 0.209419 0.726436 26 8 2
-0.276774 -0.523365 1.08182 53 31 20
0.11722 -0.596936 1.21955 107 75 57
-0.215872 -0.0508584 0.633368 38 37 35
1.96467 0.988662 2.0449 158 124 96
0.211114 0.348298 0.759468 13 2 0
0.223652 -0.529824 1.23366 73 40 23
0.280182 -0.670283 1.27842 86 56 44
0.330102 -0.618937 1.27129 68 39 23
2.07765 0.682457 1.50967 107 81 55
0.391127 0.381725 0.800444 93 76 50
-0.10761 0.260528 0.606406 72 72 64
-0.55121 0.28573 0.546957 40 31 24
0.40138 -0.599953 1.27254 52 25 13
0.473374 -0.512584 1.27623 66 40 21
2.18317 0.901138 1.23786 170 130 94
0.509426 0.4957 0.836748 78 61 41
0.482611 -0.518656 1.27762 63 36 17
0.491288 -0.493807 1.27715 45 22 6
-0.161554 -0.492465 1.10722 84 57 45
0.521317 0.206263 0.86001 96 78 55
1.29274 -0.824939 1.51729 96 76 65
0.539393 -0.547012 1.29769 43 18 4
0.260439 0.256236 0.836932 70 45 21
-0.341779 0.605913 0.767219 16 11 15
0.54458 -0.563973 1.29359 42 15 1
0.482227 0.229722 0.846029 174 159 132
0.55526 -0.69646 1.33303 94 65 53
0.605723 -0.460924 1.27899 57 31 16
2.31096 -1.20456 1.25254 203 191 179
0.623475 -0.798212 1.38164 124 94 83
-0.108796 -0.341982 1.15338 84 61 48
0.677049 -0.489934 1.29063 69 40 22
0.393396 -0.467295 1.25292 147 117 91
0.725128 -0.500528 1.30249 92 66 44
0.339369 -0.600449 1.26793 91 58 39
0.712404 0.519293 0.829869 16 2 2
1.71016 0.111756 1.05424 48 28 13
0.767842 -0.488172 1.30458 110 86 64
0.767958 -0.488954 1.30642 110 86 64
0.684284 -0.437825 1.27325 84 62 47
0.774114 -0.478314 1.30169 40 17 0
0.478102 0.446276 0.795785 31 12 0
0.325604 1.04226 1.01151 74 67 50
0.898292 -0.464619 1.30976 125 100 75
2.07255 1.13374 1.70783 184 149 117
0.929857 -0.472021 1.31419 56 31 11
0.974418 -0.801724 1.44501 132 99 84
-0.35979 -0.0891744 0.634244 43 38 35
1.01644 -0.448335 1.31131 68 42 26
0.867626 -0.739709 1.42072 97 65 49
1.02243 -0.412027 1.29856 56 31 16
0.757854 -0.480898 1.29912 48 26 5
-0.28314 0.0204736 0.595023 174 170 159
1.03936 -0.55066 1.35532 91 77 68
-0.368896 0.50423 0.752544 251 180 151
1.03523 -0.439142 1.31133 112 87 67
1.09605 -0.461194 1.32708 108 87 66
1.04128 -0.527671 1.32959 60 45 41
1.10055 -0.471513 1.32971 27 10 1
0.308647 0.514752 0.81135 84 68 45
1.10819 -0.378976 1.28889 34 12 1
1.99342 0.712813 1.92342 59 37 16
1.13958 -0.430459 1.31643 45 22 5
1.25286 -0.43503 1.32472 97 71 49
1.16228 -0.431137 1.32034 53 35 22
1.18864 -0.415592 1.31319 116 91 71
0.432199 0.500668 1.67702 86 70 48
1.35298 -0.439627 1.33474 98 75 62
1.13436 -0.121602 0.798706 148 117 86
1.24991 -0.413606 1.32049 117 92 72
1.97366 0.845903 2.00063 147 115 77
1.2346 0.156588 1.1084 71 53 42
1.92603 -0.767256 1.76774 111 93 83
1.38379 -0.418964 1.32802 94 72 51
1.35009 -0.439953 1.33415 90 70 59
0.0177735 0.288761 0.608748 75 74 57
1.39227 -0.560795 1.40316 62 52 52
-0.00367376 0.214521 0.610032 11 10 6
1.38993 -0.407618 1.32971 62 41 22
1.39141 -0.286788 1.24427 96 67 48
1.44598 -0.283765 1.24345 37 9 0
0.913244 -0.468817 1.31421 43 24 7
0.429817 0.16755 0.830065 22 5 0
1.74094 -0.79639 1.66395 119 103 95
1.86999 1.21779 1.92498 128 105 87
0.670612 -0.411607 1.26193 41 20 7
-0.462438 -0.713642 1.06548 91 66 51
-0.0603324 0.00747405 0.681939 2 1 0
2.31359 0.700266 0.965149 117 96 78
0.53482 -0.73692 1.34377 109 79 61
1.98112 0.717985 1.98409 82 60 39
-0.248904 -0.456484 1.0729 106 72 47
2.15561 1.07086 1.41442 170 136 109
2.13468 0.549791 0.936129 68 46 20
0.915882 -0.0871356 0.675754 167 131 97
-0.255647 -0.479482 1.07761 47 21 8
-0.164972 0.331737 0.596117 151 148 139
2.16 0.538725 0.947266 152 126 70
2.19357 0.732293 0.935943 146 118 94
-0.206967 -0.490644 1.10278 73 50 36
0.0651137 0.537501 0.733078 147 128 98
2.1624 0.874191 0.877759 163 136 109
0.692716 -0.0336579 0.801585 144 113 85
2.17277 0.52348 0.960145 107 76 45
-0.117363 0.27844 0.605896 11 9 10
2.16 0.538725 0.947266 152 126 70
0.518951 -0.690206 1.32277 94 65 49
0.144006 1.08536 1.10947 161 139 100
2.13468 0.549791 0.936129 68 46 20
2.04445 0.453497 0.957226 79 46 9
0.760839 -0.755776 1.39642 72 43 30
2.08122 0.658597 1.55708 92 67 41
0.170148 0.269744 0.702305 144 112 71
2.01867 0.676944 1.78853 87 66 45
-0.0924545 0.113316 0.603972 73 70 64
-0.215736 0.0733129 0.596906 9 5 3
-0.253031 0.459778 0.728698 47 21 18
1.43189 -0.548837 1.40345 109 92 85
0.611649 -0.450444 1.27646 100 75 55
-0.505282 -0.902343 1.08376 95 69 58
0.12283 -0.549881 1.21552 96 64 49
-0.41543 -0.0317271 0.67808 205 193 174
2.11512 0.827508 1.44754 95 65 37
0.560917 1.19076 1.472 241 236 223
1.92199 0.104213 1.0751 206 168 90
1.88714 0.233158 1.00559 84 49 27
-0.336697 -0.768683 1.09111 44 31 23
1.88132 0.133127 1.0622 68 42 19
-0.611957 -0.702578 1.00012 69 36 21
1.86438 0.0396172 1.10254 189 157 83
1.21376 -0.869514 1.52618 132 105 94
1.87626 -0.296663 1.40009 56 46 45
1.83642 0.175875 1.03922 150 113 81
1.89149 1.20787 1.88812 90 63 50
2.04704 0.576823 1.69439 83 63 39
1.93228 0.694937 2.16736 129 98 69
1.75484 0.0101538 0.972488 67 41 24
-0.681489 -0.908318 1.06419 0 0 0
0.518322 -0.689657 1.32574 94 65 49
0.596695 -0.17201 -0.222749 118 93 68
0.948172 -0.865223 1.4747 129 97 86
2.01596 1.04138 1.86832 86 69 51
1.4069 -0.28825 1.25399 56 35 20
1.95547 1.13681 1.80568 61 47 36
-0.606018 -0.836073 1.0184 65 38 28
1.22004 -0.423492 1.32263 101 80 57
-0.0510995 0.137274 0.607082 1 1 0
1.68726 0.101357 1.04618 41 29 18
0.110037 0.395309 0.699278 109 86 39
-0.665705 -0.292303 0.960968 113 74 54
0.32852 0.235491 0.932267 58 46 30
1.71432 -0.118182 1.15995 161 129 77
2.03385 1.24862 1.79879 168 135 102
1.92956 1.17849 1.83554 171 150 130
1.25017 0.162906 0.968498 206 183 139
1.69171 -0.106818 1.1527 137 107 54
-0.422536 0.475657 0.777951 67 60 54
0.0666706 0.5328 0.726659 147 128 98
0.41957 0.185676 0.821135 23 6 1
1.91803 1.13883 1.84731 56 42 31
1.92596 0.178141 1.05574 119 88 60
1.87062 -0.767284 1.73879 124 108 95
0.344646 0.252693 0.812855 67 54 37
0.9678 -0.878255 1.48572 128 98 88
0.601243 0.524696 0.868029 27 10 0
1.86638 1.21396 1.9072 128 105 87
-0.410463 -0.099327 0.67796 41 36 32
0.971163 -0.470943 1.31636 78 51 30
1.60742 0.147732 1.10345 36 18 5
0.0316136 0.0798744 0.635018 3 1 2
0.67597 0.61563 0.858736 173 156 130
1.91694 0.451767 2.20394 77 52 22
0.704422 -0.480219 1.29691 49 31 19
1.74094 -0.79639 1.66395 119 103 95
-0.4753 -0.714443 1.04478 106 76 65
0.167282 0.118868 0.798434 26 6 0
1.69825 -0.751434 1.61587 81 65 54
0.024447 0.644174 0.728592 15 11 8
0.159149 0.127983 0.797857 131 107 74
1.5438 -0.213534 1.20309 62 36 9
-0.411214 -0.109307 0.667926 225 213 196
1.57949 -0.775278 1.56673 93 65 57
1.13786 -0.381886 1.2937 107 83 61
0.0693007 -0.656247 1.20232 87 65 54
0.340553 -0.622584 1.2815 65 36 22
1.47294 -0.238266 1.21089 173 141 62
2.0634 0.483904 0.946596 83 59 36
0.148183 0.230852 0.701744 131 107 70
1.44765 -0.430835 1.3435 49 42 44
0.149482 0.292611 0.68795 127 100 58
1.12535 0.494959 1.12055 44 48 49
0.143209 0.287441 0.682911 25 5 0
1.16449 -0.421011 1.31422 119 95 71
0.0380945 -0.638081 1.19365 58 37 26
2.01437 0.322733 0.993023 161 128 57
-0.00535427 -0.620793 1.18634 70 45 34
-0.60292 -0.494718 0.165308 185 134 87
-0.0148274 -0.537365 1.15738 64 37 26
1.61007 -0.513655 1.45382 85 80 84
-0.0427315 -0.601098 1.16465 82 50 30
0.0430869 0.494129 0.710043 39 15 3
-0.0153951 -0.466416 1.14523 85 58 42
0.0784704 0.380647 0.690164 21 2 0
0.631109 0.075153 0.859051 74 52 38
0.0773174 0.350173 0.68685 22 5 2
2.25528 -0.0806076 1.38261 115 106 89
0.0596225 0.380171 0.686356 156 140 107
-0.051147 -0.537437 1.14722 93 64 50
1.07286 -0.891256 1.51324 96 76 69
1.99924 0.0939864 1.83153 133 98 71
0.0404513 0.479326 0.709174 28 8 0
-0.799225 -0.503436 0.941778 112 79 60
1.32173 -0.389786 1.30992 82 58 41
1.84292 -0.528363 1.56355 117 89 67
1.18363 -0.424904 1.31716 68 42 25
1.15734 -0.518053 1.34657 77 54 42
0.619644 -0.735626 1.35493 58 35 29
0.387224 0.40535 0.809262 16 2 0
0.862294 -0.728873 2.18673 111 74 55
0.178206 -0.64007 1.24506 96 67 50
1.07577 0.488959 1.10589 50 51 54
-0.113238 0.392406 0.622698 190 190 181
-0.087202 -0.607844 1.15085 69 47 37
-0.155608 -0.0875457 0.688459 63 64 66
2.00852 0.355269 0.997508 120 88 60
1.68108 0.35799 2.24963 0 0 0
1.75089 -0.0439299 2.04313 103 76 47
0.797268 -0.799345 1.41661 126 96 85
0.80594 -0.498506 1.31084 50 37 30
1.8473 0.0879464 1.08031 57 29 1
0.176935 0.233207 0.716811 15 1 0
0.447559 -0.543946 1.2711 84 56 34
0.512274 -0.528691 1.28011 63 39 20
0.277535 -0.553039 1.25609 67 36 21
0.446151 -0.513307 1.27404 46 19 0
0.498361 0.308877 0.805522 50 39 21
0.59765 -0.513651 1.28607 54 30 7
0.598592 -0.502583 1.28867 87 62 41
0.406061 -0.61476 1.27866 101 65 43
0.466734 1.11507 1.26256 49 41 29
0.609905 -0.578264 1.31027 92 70 50
0.61565 -0.466579 1.28022 103 78 58
1.77359 -0.212243 1.29279 101 84 77
-0.395915 0.144814 0.628103 254 228 190
0.647087 -0.529133 1.29774 63 40 22
0.65561 -0.76885 1.38004 78 51 41
1.66599 0.0567474 1.03652 36 19 6
0.650812 -0.464614 1.28009 94 66 44
-0.325888 -0.50589 1.05753 101 67 47
0.125599 0.533725 0.781877 24 9 3
0.681708 -0.530771 1.30928 92 63 45
0.700164 -0.452267 1.27939 63 40 21
0.682746 -0.579854 1.31794 112 84 62
0.711241 -0.752936 1.38698 108 79 65
0.028241 -0.610598 1.18903 111 76 57
0.712609 -0.741976 1.3804 88 60 43
0.721867 -0.0224539 0.771806 81 47 19
-0.304593 0.5027 0.762393 14 3 1
0.743925 -0.465332 1.29176 54 29 9
1.99991 0.012204 1.20958 83 68 61
0.703973 -0.0445791 -0.261031 123 102 85
-0.752302 -0.425396 0.289486 102 89 74
0.76844 -0.736356 1.38379 90 61 45
0.780902 -0.755524 1.39413 117 86 71
0.754872 0.298798 0.98279 23 7 2
0.783199 -0.475717 1.30468 112 89 68
0.260161 0.208862 0.864162 19 9 5
0.784229 -0.530452 1.32581 58 33 13
1.51832 -0.256881 1.22487 187 154 83
-0.202648 0.505194 0.683355 20 15 11
0.819883 -0.522806 1.32346 67 41 22
0.255246 0.182311 0.917889 83 71 59
0.835056 -0.43535 1.29025 51 35 22
0.899597 -0.530134 2.24915 31 17 6
0.247425 -0.657451 1.2579 114 79 59
-0.184666 0.266679 0.613513 132 131 112
0.851661 -0.453866 1.29758 101 79 58
1.55729 -0.831806 1.60683 87 68 62
0.087224 -0.542241 1.20209 60 31 18
0.86965 -0.485623 1.31338 61 39 16
0.795141 0.192885 -0.0185203 141 124 106
1.92671 0.0780907 1.09509 103 71 49
0.916157 -0.766424 1.41769 96 74 62
0.914104 -0.774039 1.42165 72 50 39
-0.31148 -0.188882 0.653613 219 192 162
0.909162 -0.478577 1.31728 123 97 76
1.91298 1.0127 2.2867 81 55 33
0.327612 -0.64903 1.28002 53 24 10
0.939169 -0.456699 1.30467 59 34 12
0.296793 -0.609265 1.26105 88 58 43
0.562406 0.0905354 0.934582 92 72 55
0.950516 -0.432635 1.29492 110 85 61
0.374453 -0.465062 1.23612 150 116 89
0.398674 0.497637 0.828617 71 57 31
0.956517 -0.47896 1.32144 70 45 25
1.49641 -0.577951 1.46307 58 48 47
-0.113061 0.379932 0.612861 11 10 5
0.971363 -0.471016 1.31601 78 51 30
-0.343577 -0.649103 0.10084 57 47 46
1.96414 0.310179 0.972615 57 30 3
1.02218 -0.423665 1.30437 98 72 57
1.14313 -0.0602247 0.79395 154 120 85
0.844305 0.169683 0.91616 150 114 88
0.955195 -0.109004 0.674016 79 44 20
1.03756 -0.471948 1.32847 116 94 74
2.16267 0.605137 0.91774 162 135 80
1.07409 -0.486989 1.33214 94 71 55
2.13112 0.660245 0.886154 91 62 45
1.09812 -0.531894 1.3487 100 79 66
0.925376 -0.438999 1.29611 53 34 19
1.06535 0.504855 1.08655 37 38 40
1.05864 0.575081 1.02742 37 38 40
-0.430275 0.281773 0.58866 72 38 27
0.481587 -0.680663 1.42216 79 52 31
1.10159 -0.386624 1.29116 126 101 80
1.08903 0.536552 1.07751 85 88 93
2.20898 1.00276 1.2996 160 125 97
0.524235 0.940476 0.724694 211 201 179
1.13877 -0.446033 1.32514 68 44 26
1.13689 -0.381763 1.29305 107 83 61
-0.332119 -0.611635 0.133232 52 43 33
0.712621 -0.432693 1.27593 116 96 76
1.18246 -0.368571 1.28655 34 14 1
0.614535 -0.530065 1.29509 41 24 17
0.689481 0.42735 0.845523 23 19 13
0.576651 -0.753879 1.3539 112 79 65
1.19855 -0.40139 1.3059 108 83 62
0.850423 -0.510771 1.32147 130 102 78
-0.431621 -0.410825 0.404873 220 205 180
1.263 -0.817276 1.50881 85 60 53
1.24065 -0.379742 1.30001 60 42 28
1.29548 -0.904819 1.56754 132 110 98
-0.448029 -0.719881 1.05959 50 30 23
0.271407 0.347697 0.799527 63 45 25
1.29887 -0.914832 1.57115 103 83 76
1.18884 -0.0994617 0.843621 87 55 30
-0.44381 0.608499 0.866037 30 23 24
0.622373 -0.45687 1.27862 60 37 19
1.21554 -0.0334526 0.819745 51 47 38
0.26547 0.372671 0.794522 10 1 0
1.22874 -0.0299815 0.825558 15 11 2
1.40545 -0.876245 1.58232 131 112 105
-0.109715 0.302411 0.596734 3 1 1
1.2363 -0.0816935 0.835908 14 8 1
1.24053 -0.0335477 0.82706 63 58 52
1.77359 -0.212243 1.29279 101 84 77
1.41564 -0.261276 1.4377 124 100 76
1.39959 -0.411422 1.32883 103 82 65
-0.911218 -0.859258 0.607686 32 29 24
0.780328 -0.739159 1.3922 72 44 32
1.50812 -0.862704 1.61087 134 112 99
1.49777 -0.589717 1.46878 88 80 79
1.72239 0.0293393 0.986308 86 64 48
2.07357 0.170736 1.14922 96 78 64
1.50133 -0.507158 1.3965 105 90 86
0.839146 0.46495 0.986013 25 25 24
1.56454 -0.659967 1.52844 59 53 55
1.59928 -0.786425 1.58703 94 75 61
1.90681 0.109951 1.07968 71 40 17
1.59952 -0.530054 1.45535 60 55 59
-0.458812 -0.552451 0.163256 75 57 43
0.542126 0.361682 0.854223 21 5 1
1.61469 -0.293999 1.30338 56 46 39
-0.700762 -0.773833 0.99245 69 41 29
1.60641 -0.160742 1.18451 41 13 0
0.462398 -0.48546 1.276 42 17 1
1.66161 -0.252579 1.29334 98 81 74
-0.43006 -0.482556 0.312651 171 158 126
1.39247 1.06775 1.49302 65 62 57
1.60421 0.106974 1.11557 25 6 0
1.13219 -0.371169 1.28459 58 37 18
1.62795 -0.180838 1.19463 81 49 26
1.73504 -0.248602 1.30881 100 89 87
-0.477974 -0.570105 0.174577 109 86 72
-0.418465 -0.499521 0.31102 191 177 145
1.79957 -0.235153 1.30839 98 84 73
-0.401426 -0.577206 0.139811 163 137 108
1.69723 -0.0218804 0.998305 41 24 9
1.74076 -0.226684 1.10867 75 68 69
0.712117 0.286022 0.973126 83 58 36
1.72293 -0.0220085 0.975447 100 73 53
-0.0213153 -0.431077 1.1501 50 22 11
1.87038 0.104005 1.07157 79 44 6
0.853781 0.481671 0.960801 86 84 85
1.95017 -0.0513506 1.23789 58 47 45
-0.0154915 -0.53361 1.17642 93 66 50
-0.115929 0.00873335 0.63298 48 46 39
1.88082 0.140532 1.06633 128 95 71
-0.0910875 -0.522946 1.14338 88 55 37
-0.126486 0.2328 0.602622 6 5 2
1.88834 0.207182 1.03585 67 40 21
1.96322 -0.0129004 1.2055 106 90 78
-0.00844907 0.301989 0.601542 5 4 2
-0.173329 -0.147897 0.678031 45 26 20
1.90309 0.170017 1.05551 85 54 26
1.90814 0.154681 1.05654 63 36 15
1.90119 0.200743 1.03889 74 45 23
0.596253 0.25354 0.851654 94 77 49
2.12493 0.792092 1.43871 75 49 25
1.15815 -0.465021 1.3385 98 72 50
0.530058 0.895746 0.944244 164 130 92
0.667796 -0.0254462 0.8255 163 132 98
2.06272 0.0792051 1.19143 57 40 32
2.34194 0.586888 1.12947 123 89 71
1.623 0.140206 1.08893 34 20 7
1.08097 -0.468845 1.32813 91 67 50
-0.915824 -0.82392 0.603307 59 55 44
-0.0578105 0.161679 0.606183 3 3 3
-1.14606 -1.09776 0.975302 12 9 2
0.529968 0.316193 0.844369 62 49 33
1.16715 -0.520031 1.34985 105 81 65
-0.906974 -0.821487 0.622244 63 59 48
-0.906893 -0.804983 0.633633 63 60 46
2.11201 0.583513 0.919583 77 55 42
-0.962155 -0.868533 0.528762 29 28 24
-0.948527 -0.416313 0.986033 70 63 62
0.657161 -0.447836 1.27219 79 51 31
-0.698193 0.216979 0.533818 69 45 19
1.89824 1.29105 1.93555 86 74 58
-0.851313 -0.504516 0.919792 125 94 76
-0.961963 -0.385739 0.295099 42 43 38
-0.764452 -0.524799 0.949715 46 14 0
0.784613 0.112448 0.82874 54 27 6
-0.694822 -0.481039 0.962225 34 5 0
0.12557 -0.518581 1.20142 93 61 40
-1.18769 1.99763 1.28314 114 110 98
-1.2099 -0.509815 2.10546 178 138 112
-0.664563 -0.427355 0.938557 87 57 33
-0.277464 0.528349 0.733834 177 170 164
0.815779 -0.675794 1.38083 99 78 62
1.27216 -0.648302 1.40318 45 35 36
-0.180033 0.0775985 0.602027 47 44 39
-0.622486 -0.445835 0.980763 92 64 43
1.20242 -0.347369 1.27683 122 94 70
0.123023 0.381558 0.702466 176 161 126
-0.56197 -0.745006 0.917815 100 65 43
-0.240196 0.174816 0.623727 7 2 1
-0.204141 0.253448 0.611402 73 67 58
-0.605501 -0.823504 1.02069 87 51 34
-0.258847 -0.330561 0.540413 128 96 71
-0.258382 -0.126199 0.631649 26 24 25
-0.320605 -0.494014 1.06056 37 12 4
0.617346 -0.751985 1.35959 102 71 52
-0.21743 -0.120019 0.643741 18 18 20
0.879676 -0.412991 1.28577 39 18 1
-0.177297 0.0924834 0.602589 53 49 46
-0.205932 0.219811 0.622799 118 113 107
-0.241966 -0.519699 1.08946 50 27 18
1.50449 -0.231175 1.20639 159 128 50
0.32205 -0.507715 1.23911 38 11 2
-0.239156 -0.405343 1.09328 92 61 41
1.38884 0.0779582 0.958386 97 62 41
-0.0257527 -0.485801 1.14435 117 76 51
-0.232636 -0.394079 1.08667 64 32 17
-0.196129 -0.087688 0.660292 93 93 95
0.249266 -0.56271 1.25137 43 19 9
-0.228839 -0.482473 1.08594 81 55 42
-0.0475038 0.188977 0.605609 2 3 0
-0.161192 -0.582199 1.12098 73 48 41
1.30646 -0.463121 1.34038 94 77 61
-0.152819 -0.485667 1.11141 51 24 8
-0.107774 0.506258 0.655475 2 0 1
-0.13878 -0.419058 1.11294 84 55 40
-0.166684 0.0574033 0.603361 10 6 3
-0.142782 -0.570096 1.1327 70 47 42
-0.122157 -0.501426 1.12294 95 66 52
-0.146544 -0.0846074 0.696401 15 16 18
-0.0704908 -0.0501888 0.74566 89 89 91
-0.105107 -0.501332 1.1277 88 59 45
-0.0932956 -0.494495 1.12492 57 28 14
-0.176235 -0.0962014 0.678756 88 89 91
-0.0740813 0.235114 0.598081 5 1 1
-0.0657124 -0.603143 1.15274 53 34 26
-0.0466004 -0.519637 1.14289 102 70 56
0.206344 0.556488 0.86483 13 3 1
0.0299141 -0.448605 1.15882 62 38 25
0.375949 -0.595432 1.27398 54 26 15
2.00255 1.37006 2.0224 223 207 187
0.0419242 -0.628323 1.19373 94 66 52
0.404336 0.383175 0.812449 7 1 1
0.153574 0.282402 0.694744 32 13 7
1.85235 1.00287 2.28189 67 45 22
0.908603 -0.454608 1.30376 112 90 67
0.154852 0.205027 0.73449 120 97 67
0.178596 0.466917 0.791152 70 53 37
-0.296209 0.635586 0.769776 9 3 5
0.239222 -0.520033 1.23089 94 63 46
0.323824 0.864955 0.591886 232 225 209
-0.284428 0.0431 0.586239 188 185 165
0.261177 -0.673703 1.26769 104 76 59
-1.21458 -0.180712 0.441392 164 149 114
0.358685 -0.594077 1.26859 79 52 37
0.362969 -0.567205 1.25776 88 59 41
0.770177 -0.509404 1.31958 40 22 10
0.374282 -0.635323 1.28601 84 55 37
0.456191 0.236119 0.81306 12 5 2
1.32918 -0.358903 1.29195 60 41 27
-0.315062 -0.142139 0.639641 237 236 229
0.435372 -0.66048 1.29965 61 30 12
0.700622 0.04886 0.798225 80 45 25
0.463031 0.182786 0.841389 25 10 4
0.453792 0.10466 1.16747 86 78 67
1.99444 0.713291 1.9259 59 37 16
1.97391 1.19193 1.94809 147 120 98
0.449755 -0.472614 1.26843 80 52 30
0.486614 0.236885 0.842234 25 14 4
2.16802 1.09471 1.42265 147 118 94
1.95676 0.226578 1.98831 84 56 33
0.480949 -0.498734 1.2737 99 71 53
-0.24121 0.474056 0.728645 17 9 8
-0.90611 -0.843736 0.618621 73 69 57
-0.427759 -0.490573 0.304574 23 18 15
1.87884 -0.270328 1.36195 81 71 70
-0.948527 -0.416313 0.986033 70 63 62
-0.670139 -0.480605 0.971688 87 57 35
-0.662352 -0.762143 0.991118 118 80 58
-0.652976 -0.794722 0.994374 61 32 16
-0.355361 -0.015455 0.624596 192 192 184
2.14561 1.0534 1.40942 135 104 83
-0.361537 -0.0964424 0.641837 30 25 20
-0.142782 -0.570096 1.1327 70 47 42
-0.278433 0.123967 0.543746 132 96 44
-0.122348 -0.556607 1.13499 95 72 58
0.0420431 -0.627924 1.19171 94 66 52
-0.260464 0.0150817 0.584526 30 26 23
0.261963 -0.688856 1.27023 103 73 55
0.117987 0.470555 0.762135 69 52 26
0.516252 0.273586 0.828455 31 15 2
2.04434 0.547531 1.72237 46 25 4
0.366836 -0.686751 1.29497 53 24 10
0.930351 0.397843 0.982821 52 49 42
0.498719 -0.478167 1.26845 76 50 30
0.983244 -0.447716 1.31237 127 104 79
1.79794 0.11692 1.06795 104 72 47
0.557186 0.382184 0.856033 100 83 57
1.27071 -0.057929 0.835224 26 22 11
2.01383 0.731748 1.77631 67 48 28
0.597143 -0.513516 1.29014 54 30 7
1.39512 -0.630747 1.47102 86 79 86
0.571314 -0.409956 -0.297142 204 190 164
0.387168 0.36291 0.808583 89 69 46
0.609514 -0.578513 1.30998 92 70 50
0.79468 -0.522034 1.32358 66 41 21
-0.601291 -0.364476 0.413263 100 66 48
0.799421 -0.483517 1.30665 88 68 47
0.80794 -0.442625 1.28874 98 75 54
-0.102327 0.450407 0.638449 10 6 4
0.913824 -0.801798 1.44286 120 92 81
2.21255 0.74944 0.942907 107 88 71
1.03864 -0.712467 1.43018 98 83 76
1.45318 -0.62218 1.47683 93 83 84
-0.378495 -0.0933786 0.637673 33 25 21
1.04666 -0.432604 1.3081 84 61 43
1.44814 0.139424 1.0107 175 147 106
1.06789 -0.420143 1.30238 54 32 21
2.18455 0.64198 0.920993 170 141 97
0.252663 0.44774 0.808438 68 48 21
1.10059 -0.386265 1.2908 126 101 80
1.20575 -0.420366 1.31752 71 46 26
-0.389591 -2.98218 6.33703 153 146 127
1.71894 0.282938 2.11497 92 71 46
1.22501 -0.488587 1.34188 81 56 36
1.23331 -0.425383 1.32084 41 20 1
0.430764 -0.467568 1.2594 130 98 75
-0.220216 0.0549621 0.602285 6 2 1
1.24391 -0.325722 1.26949 68 44 21
1.68224 -0.754656 1.60683 115 100 87
0.617058 -0.0115779 0.944653 136 116 90
1.24385 -0.0613747 0.831814 61 57 48
1.62028 -0.120323 1.17011 87 64 50
-0.430097 -0.73536 1.07176 155 117 98
1.69768 -0.131196 1.16834 71 41 12
1.72747 -0.0548346 0.982703 53 25 11
0.66599 0.261227 0.953845 80 57 39
-0.0547268 0.73171 0.978756 48 48 48
1.88105 0.140676 1.06671 128 95 71
1.37512 1.02819 1.48324 70 70 68
2.02333 1.35499 1.86172 143 99 62
1.90119 0.200743 1.03889 74 45 23
1.92555 0.177852 1.0527 119 88 60
-0.142616 0.756658 0.947785 60 59 55
-8.12014 10.8583 13.1218 142 139 124
2.10113 0.524771 0.936899 81 58 43
-0.322341 -0.145307 0.6538 233 234 227
0.224428 -0.518936 1.22655 100 65 45
0.241635 0.776022 1.08609 220 209 188
-0.195136 -0.56 1.11165 41 22 13
1.63556 -0.795261 1.61679 74 57 50
0.496496 0.29074 0.827388 115 99 72
0.496261 0.291119 0.829755 115 99 72
2.39377 0.88642 0.94365 187 175 159
-0.237748 0.318072 0.641191 87 83 74
1.33312 -0.731863 1.50723 109 92 80
-8.71133 9.52233 13.9792 99 97 85
-9.06899 9.3669 13.5918 103 101 89
-0.203477 0.231795 0.614144 7 3 0
-0.580346 -0.57899 0.999041 111 81 70
-0.405493 0.275391 0.598967 52 23 7
-0.338261 -0.611519 0.116754 154 143 123
-0.113102 -0.138272 0.800362 25 24 20
-0.0617535 -0.0113691 0.973431 41 42 34
-0.127439 0.419995 0.631109 163 159 147
0.0734845 -0.669001 1.19929 32 16 15
2.20458 -0.494944 1.66375 151 139 125
-0.233834 -0.0357047 0.606037 9 8 3
-0.677265 0.28176 0.553315 233 199 151
-0.579407 -0.369454 0.964356 73 44 26
-5.9892 6.91708 13.4402 115 113 101
-0.594564 -0.621616 1.00426 105 70 48
-0.238632 -0.0137675 0.592804 17 16 12
0.0482575 0.232823 0.653951 3 5 0
0.269343 -0.624622 1.26359 105 69 47
1.7573 0.757731 2.18168 80 57 40
-8.2764 7.87542 14.8844 0 0 0
-0.422536 0.475657 0.777951 67 60 54
0.654332 0.0494174 0.865368 143 112 84
0.918126 0.602639 1.02224 27 26 31
0.401308 0.372915 0.806563 24 11 5
0.906175 0.0138738 0.755736 196 163 130
-0.229434 0.37744 0.662366 176 168 156
1.95962 1.17295 1.8576 134 117 100
0.355879 -0.437302 1.35645 119 84 56
0.745445 -0.4275 1.26861 66 46 22
2.13 0.918594 0.932151 219 211 192
-0.509707 -0.804532 1.1432 233 221 205
0.583173 0.320763 0.881281 9 10 8
0.0581435 -0.653746 1.21028 89 70 57
0.89829 0.52078 0.987524 82 82 82
-0.372348 -0.0551747 0.651849 185 179 165
0.620346 0.944234 0.824115 45 38 19
1.09147 0.0468795 0.807425 35 34 31
1.1246 -0.348707 1.27395 138 112 89
1.15713 -0.0015656 0.814522 28 24 15
-0.143225 0.336686 0.608506 7 6 2
-0.733239 -0.750351 0.970007 65 38 21
2.05324 1.37167 1.87237 169 136 111
-0.500464 0.231105 0.54664 252 223 166
-0.497983 0.293581 0.551181 206 163 117
1.00741 -0.106736 0.704642 113 81 58
2.01324 0.679611 1.82912 94 74 50
-0.48553 0.192212 0.598755 140 101 60
-0.290189 0.421901 0.73052 33 24 14
1.25 0.893823 1.3668 126 99 71
-0.214419 -0.217495 0.628585 128 94 67
1.91097 0.891132 2.23337 167 134 98
0.0475834 0.29577 0.681374 59 43 27
0.0828788 0.22449 0.666865 95 74 53
1.6206 -0.11369 1.16619 76 49 28
-0.223427 -0.248487 0.607182 176 143 112
0.196103 0.228949 0.7411 101 84 58
-0.906376 -0.858203 0.623906 87 84 79
0.164496 0.114312 0.967324 59 44 22
1.96778 0.773305 2.04498 134 101 67
1.73248 -0.321102 1.34347 111 93 80
1.9376 -0.162741 1.314 77 69 71
0.27703 0.276741 0.828856 3 2 0
1.13733 0.0201335 0.803383 27 23 20
1.86881 0.123375 1.07144 72 46 29
0.278123 0.982328 1.06728 121 108 99
0.579444 0.3213 0.895097 9 10 8
-0.289718 0.421859 0.731144 33 24 14
0.571312 -0.65459 1.31127 52 30 21
-0.537227 0.349145 0.572794 229 192 142
0.00501074 0.465707 0.701652 2 1 0
1.95585 0.173329 1.05237 176 143 84
-0.696603 0.210205 0.534404 120 93 56
0.0196258 -0.587492 1.18113 111 77 52
-0.232884 0.0160735 0.589677 16 11 8
1.7257 -0.688101 1.62816 116 89 68
1.56577 -0.211846 1.20138 141 112 49
-0.0289061 0.141027 0.607858 4 4 2
0.561756 0.916385 0.741002 146 145 112
1.87734 -0.627203 1.65856 108 80 56
-0.129147 -0.016508 0.637271 4 4 2
-0.184532 0.220433 0.609886 83 79 72
0.346651 0.322327 0.796826 72 55 35
1.01391 -0.832721 1.47031 82 57 52
-0.313435 -0.121786 0.630153 31 31 31
1.32819 0.241853 1.0972 234 227 209
-0.267615 -0.504823 1.08298 87 55 34
2.04663 0.692871 1.60315 102 80 56
-0.959839 -0.182081 0.652634 70 69 67
-0.295547 0.537973 0.741664 30 26 26
-0.206919 -0.0287128 0.616318 9 8 4
1.85901 0.0929156 1.0769 185 149 73
-0.943153 -0.25137 0.735359 185 175 151
-0.138185 0.757877 0.94262 40 40 40
-0.891673 -0.207772 0.832334 66 63 59
0.704949 -0.0686172 0.942766 0 0 0
-0.353006 -0.470535 0.374028 32 25 17
0.390141 -0.615637 1.27968 64 35 20
-0.449133 0.237986 0.564574 92 50 25
0.988046 -0.510741 1.34082 106 78 56
1.4536 -0.0170707 1.91855 74 45 28
-6.65864 11.9126 15.1572 133 131 118
-0.354829 0.583853 0.768216 71 70 68
0.740989 0.827076 0.647406 120 104 81
1.75556 -0.526838 1.50775 109 90 73
-0.186709 0.302881 0.605985 101 92 83
1.10198 0.470605 1.10628 126 134 136
1.84185 -0.777069 1.71484 120 104 91
-0.125794 0.166246 0.589803 6 8 7
1.05838 -0.8549 1.48821 136 107 91
1.33814 0.0644519 0.925168 159 134 94
-0.130092 0.524362 0.649425 163 135 94
0.694793 0.0315663 0.796342 132 97 68
0.88838 -0.571643 1.35009 100 75 55
-0.31633 -0.636799 0.112376 111 103 84
-0.114114 0.0128869 0.633073 52 49 41
-0.914575 -0.396371 0.305066 191 178 161
0.351879 -0.5121 1.25222 23 8 1
0.540131 0.251205 0.863442 10 0 0
0.0662684 0.536766 0.729002 147 128 98
-0.409593 -0.514921 0.285754 19 10 3
0.514278 -0.583486 1.28152 42 23 13
-0.38156 0.681529 0.821699 138 136 123
0.647554 -0.481614 1.29148 60 37 23
0.74178 -0.495059 1.30269 103 81 57
1.12431 -0.0857813 0.755932 174 141 108
1.94488 1.33184 1.93925 221 215 193
0.992176 -0.397029 1.2816 120 100 83
1.09404 -0.406425 1.31188 129 105 81
1.72772 -0.732625 1.63143 75 56 49
1.08603 0.644044 1.00673 52 53 55
0.663024 0.43254 0.865821 81 59 35
0.786896 0.496339 0.980531 71 71 71
1.10478 -0.00825327 0.789602 147 118 80
2.08518 0.66447 1.52857 64 43 26
-0.943153 -0.25137 0.735359 185 175 151
-0.417299 -0.694161 1.12948 144 122 111
-0.89069 -0.208258 0.830309 66 63 59
2.04872 0.30174 1.0136 150 118 62
-0.660135 0.214056 0.550455 189 148 105
-0.450428 -0.536169 0.267538 55 46 37
-0.115056 0.0133975 0.633894 52 49 41
2.09953 0.523567 0.932532 81 58 43
-0.650943 -0.897375 1.01765 122 99 93
1.30664 1.05404 1.4585 93 93 91
0.100432 0.26015 0.68282 6 0 0
2.10839 0.634628 0.891835 62 30 16
1.27715 -0.41679 1.32509 94 72 50
1.31296 -0.38263 1.3007 104 79 58
2.15275 0.986967 1.36944 157 121 87
1.8753 1.15385 2.34703 98 79 64
0.822683 -0.692779 1.37023 51 31 24
1.61899 -0.27807 1.29033 74 58 45
1.98112 0.717985 1.98409 82 60 39
0.632283 -0.530523 1.30561 100 72 51
2.03774 1.12758 1.78066 178 148 112
-0.276314 0.6641 0.769005 19 12 7
1.58696 -0.163459 1.17586 182 151 69
2.00433 0.704403 1.86089 60 43 27
0.704433 -0.71818 1.36431 61 34 27
1.08766 0.558693 1.06551 97 101 102
0.253055 0.229648 0.8849 75 55 34
0.395529 0.266012 0.832218 11 6 2
0.806991 -0.550384 1.33317 104 73 44
1.09264 -0.382088 1.28315 126 102 76
0.111179 -0.670873 1.21296 113 75 54
1.36756 -0.108776 1.87751 165 132 99
0.448838 0.250902 0.809769 105 88 70
-0.713736 0.409667 0.652761 96 53 19
-0.0291564 0.105516 0.611582 3 3 3
0.471808 0.286592 0.818224 50 35 16
-0.0402244 0.136628 0.613833 2 2 2
-0.116693 0.341513 0.60437 2 1 0
0.414033 -0.655871 1.29767 91 60 45
-0.132866 0.253815 0.60444 24 24 18
1.5114 0.153238 1.99986 189 149 105
-0.153489 -0.00440321 0.626343 4 3 1
2.26399 1.03243 1.45429 152 135 115
-0.229146 -0.0654712 0.643937 3 5 6
-0.298433 0.0708785 0.614147 24 19 15
0.330398 -0.67964 1.29826 82 51 35
0.681898 0.0442274 0.80762 113 81 57
-0.359646 0.287176 0.616733 155 116 73
0.000239821 -0.639019 1.18333 41 21 10
-0.369297 -0.495425 0.380855 70 59 49
0.724918 0.672494 0.861552 187 162 135
-0.0701108 -0.471532 -0.346951 127 116 97
-0.709283 0.414527 0.635981 118 83 56
0.662834 0.108642 0.858212 89 61 40
0.283611 0.443752 0.815466 17 13 10
1.87745 -0.296042 1.36539 85 75 71
0.777497 -0.789068 1.41251 67 39 27
-0.55586 -0.512763 0.184421 185 142 99
1.37843 -0.259418 1.24576 83 62 41
0.0917947 0.448581 0.713625 26 5 2
-0.538156 0.170037 0.640239 96 65 34
-0.0720427 -0.524158 1.14282 78 48 36
0.794915 -0.651045 1.36865 98 75 59
-0.283166 0.64725 0.769541 19 18 15
0.114461 -0.673085 1.21785 113 75 54
-0.0732489 -0.0509556 0.74317 87 87 86
0.127377 -0.534257 1.21468 93 60 41
0.902221 0.419365 0.945511 28 27 28
0.568385 0.472562 0.878174 55 39 23
1.4889 0.124804 1.07578 160 130 80
-0.0604508 0.134637 0.607296 77 77 69
0.138864 0.932015 1.1331 50 41 32
-0.18819 -0.536973 1.11886 75 42 24
0.371653 0.27912 0.838687 50 35 12
-0.147432 0.441178 0.644835 24 19 15
-0.259444 0.495754 0.733644 43 34 33
0.679739 0.0915296 0.831869 137 106 75
1.49521 -0.869316 1.63038 79 62 55
-0.121103 0.575613 0.665339 129 101 80
0.756968 -0.695886 1.35058 108 70 49
2.17271 0.619664 0.938104 146 118 55
0.352093 0.453355 0.813912 48 29 14
0.759828 -0.735105 1.37944 104 70 53
1.70358 0.169009 1.89713 80 56 32
2.17439 1.05168 1.40013 215 204 184
0.884958 -0.454232 1.30595 38 23 17
0.687493 -0.738363 1.37282 111 76 56
2.07084 -0.66049 1.76691 61 47 34
0.705764 -0.480622 1.29576 49 31 19
-0.344712 0.734241 0.869396 11 3 1
0.744582 -0.613414 1.35839 95 67 43
2.19703 0.757833 1.1614 159 121 83
0.830296 -0.774071 1.41705 91 59 44
1.87837 1.02612 2.32082 155 126 97
0.561936 -0.715234 1.34224 97 67 53
1.95499 0.723929 2.05397 71 50 30
0.133298 -0.630097 1.23181 92 59 44
1.7064 -0.789922 1.65897 129 103 90
0.582964 -0.593747 1.30707 106 81 60
1.68879 -0.0502569 1.11139 91 66 46
1.8225 -0.692048 1.66639 58 40 30
1.7937 0.0420945 1.00053 50 24 7
2.16455 1.08961 1.41447 147 118 94
2.1696 0.634468 0.892837 155 123 78
2.09136 -0.294274 1.51616 108 83 61
0.762394 0.500825 0.888514 42 40 41
2.09418 0.495136 0.941744 161 129 68
1.09515 -0.460806 1.32688 112 86 64
2.10298 0.478608 0.954858 57 32 19
-1.00873 -0.948368 0.454204 5 5 4
-0.773712 -0.777153 0.954362 50 28 17
-0.548852 0.328364 0.565294 153 114 75
1.28351 -0.440077 1.3388 120 94 70
-0.124826 0.671106 0.768066 175 167 158
-0.363391 -0.0442302 0.620876 159 152 136
-0.705341 -0.82632 0.990458 115 83 68
-0.347799 -0.068976 0.624251 28 24 21
1.12438 -0.446282 1.32401 86 58 37
-0.411259 -0.720986 1.08987 147 105 82
1.17103 -0.4738 1.34419 70 43 22
-0.239986 0.0333249 0.584043 19 16 9
-0.226379 -0.294635 0.562282 115 79 53
0.0291962 -0.648805 1.20742 82 62 53
-0.199369 0.0142208 0.596084 44 41 36
-0.167268 0.429406 0.645354 35 31 28
0.846162 0.405766 0.925018 73 57 32
-0.261502 -0.509434 0.989552 102 66 42
